# .PCD v0.7 - Point Cloud Data file format
VERSION 0.7
FIELDS x y z
SIZE 4 4 4
TYPE F F F
COUNT 1 1 1
WIDTH 1732
HEIGHT 1
VIEWPOINT 0 0 0 1 0 0 0
POINTS 1732
DATA ascii
1.93353 -0.0336198 1.65375
1.64043 0.275106 1.41534
-0.00785004 0.0683915 0.0627728
-0.0628118 -0.113111 0.487074
0.0389143 -0.141417 0.672377
0.0175891 0.0749733 0.0607781
-0.047646 0.0528503 0.0988332
0.00148456 0.0632012 0.0799106
-0.0507945 0.0587881 0.101864
-0.00362415 0.078315 0.03376
0.0344746 0.0825203 0.0362017
0.0120855 0.071259 0.0572115
0.0882069 0.0666357 0.0966797
0.0595838 0.086892 0.164228
0.00652224 0.0694746 0.0613173
0.0650494 0.064161 0.0904323
0.0192898 0.062172 0.0811728
3.25504 -0.397336 -0.193699
2.11876 -0.230467 1.95709
1.6437 -0.306306 1.34736
0.0476536 0.078424 0.0540674
0.0251071 0.0709121 0.0702239
0.0579071 0.0898354 0.0230597
0.0266906 0.0657651 0.0785603
0.100833 0.0788074 0.0513434
0.0443533 0.0538801 0.128127
-0.0515759 0.066558 0.0816024
-0.0845417 0.0662702 0.0636084
0.0168372 0.0790413 0.0365632
-0.0230313 0.0588913 0.0676972
-0.0531118 0.0686963 0.0531836
-0.0705605 0.0458483 0.103229
-0.0918304 0.0604575 0.0776052
-0.00163827 0.0657714 0.135683
-0.0922084 0.0620388 0.087491
-0.0606524 0.0779239 0.0682798
-0.0555655 0.0636982 0.0786216
-0.0282049 0.0733302 0.0432363
-0.0579363 0.0502118 0.099632
0.111155 0.0757516 0.0602228
-0.049048 0.0605714 0.0930731
0.066191 0.0842449 0.0428662
0.0715229 0.0857325 0.0308481
0.247679 0.0369247 0.294463
-0.0176671 0.0777209 0.0319084
-0.0477644 0.0544728 0.0975072
-0.0557442 0.0702797 0.0791029
0.0693033 0.0845171 0.0287364
0.240529 0.0610212 0.285201
0.254846 0.0440369 0.254349
0.098825 0.0571086 0.122998
2.01177 -0.0077009 1.87716
1.89792 -0.149021 1.09944
0.0283157 0.0667048 0.0741294
-0.0256864 0.0609891 0.152655
0.096626 0.0696061 0.0811756
0.0343756 0.0860006 0.0219453
0.0716465 0.0861025 0.0311699
0.128977 0.0656586 0.105518
0.0328834 0.0632643 0.0786907
0.10208 0.0611586 0.114228
0.0146137 0.0261805 0.274537
0.0561023 0.0450406 0.146118
1.80063 0.0483178 1.58168
2.68957 0.126824 2.26141
2.70181 0.120892 2.2655
1.85818 -0.668899 2.02832
1.68627 0.0120176 1.45947
2.77148 -0.0150538 2.11964
2.11396 0.383946 1.07604
0.0663163 0.0738809 0.0651171
0.073022 0.0502124 0.135527
0.0481018 0.0775714 0.0535468
1.59553 -0.560334 2.25913
1.16275 -0.130574 2.30051
1.62645 -0.394212 2.20743
0.0507154 0.0446964 0.142127
-0.0848324 0.00733318 0.456154
-0.0115825 0.0645696 0.150903
0.0859697 0.0787195 0.0493289
0.0786182 0.0790425 0.0460413
0.0783493 0.0797575 0.0456207
0.0188941 0.0700249 0.0625768
-0.0159237 0.0783609 0.0351255
-0.0707876 0.0460951 0.103684
0.0404652 0.0849271 0.034278
2.15676 -0.109499 0.913641
1.66009 -0.28263 1.25519
1.16679 -0.222487 0.829068
1.32786 -0.232642 1.05192
3.47928 -0.182203 0.113067
-0.049412 0.0606211 0.0933321
-0.0911331 0.0606435 0.0754294
-0.0452271 0.0728299 0.0803619
0.0585007 0.0578794 0.112053
0.0393359 0.0527983 0.121793
-0.0020001 0.0687482 0.0706793
0.122463 -0.0441086 0.769955
-0.0213125 0.0778921 0.0304854
-0.00464038 0.0747334 0.0440243
0.0412873 0.0469238 0.235682
-0.0645935 0.0747183 0.0681263
-0.0089598 0.0731015 0.0477097
-0.0659641 0.0753649 0.0674133
-0.0636331 0.0539687 0.086648
0.0200533 0.0742791 0.051453
0.083652 0.0776048 0.0517237
0.0259327 0.0414212 0.21231
-0.00782156 0.0611103 0.0857933
-0.324994 -0.0177084 0.688645
-0.0451006 0.0723192 0.0795769
0.151117 -0.0353515 0.812092
0.961773 -0.857281 2.06615
0.0375463 -0.140398 0.614946
-0.231615 -0.314861 0.947281
1.03551 -0.832742 2.01663
0.0202371 0.0741659 0.0629185
0.0124009 0.0713589 0.0577332
0.127855 0.129203 0.101488
0.128921 0.0651643 0.106205
-0.314584 -0.017853 0.6693
0.0435814 0.0614226 0.0966442
0.0622646 0.053124 0.121236
-0.0373545 0.0642696 0.0915857
-0.0346223 0.0709717 0.100463
-0.0465066 -0.104245 1.8539
0.282401 -0.438251 1.48871
0.507827 -0.0431861 2.25165
0.374492 -0.0135651 2.05929
0.839399 0.0427649 2.0661
0.361069 0.0987446 1.99956
0.752256 -0.26238 2.38135
0.0806084 0.0774526 0.23053
0.0804569 0.0773017 0.230764
0.11185 0.0638396 0.235856
-0.0264663 0.0016972 0.517776
0.400944 0.175849 0.657025
-0.125213 -0.395307 1.02914
-0.123449 -0.392967 1.02389
1.6385 -0.676469 2.06193
0.0102269 0.0743023 0.0506622
-0.588522 0.0515608 0.756943
0.0117162 0.0758555 0.0528133
-0.0447573 -0.000753031 0.563565
0.56124 0.00198076 1.25374
-0.00149502 -0.0125565 0.546922
-0.315739 -0.26889 0.844237
-0.543201 -0.377441 0.814408
0.168802 -0.00811122 0.825021
0.310509 -0.161992 0.998765
-0.403338 -0.279885 0.751938
-0.620517 0.0451539 0.862083
-0.00368029 0.0786302 0.0345023
0.0413016 0.0794666 0.0438372
0.0590577 0.0592218 0.107829
-0.0986812 0.0183756 0.520558
1.59895 0.253532 1.38511
1.71876 0.0290152 1.35088
1.50201 0.186265 1.35211
-0.069747 0.0463137 0.101729
0.0156425 0.0215054 0.315829
-0.0642918 0.0226928 0.504365
0.014721 0.0752664 0.0454088
0.756304 -0.0316569 1.48741
1.04058 0.481163 1.05633
0.0881432 -0.0977286 0.863438
0.802987 0.492523 0.998071
-0.0224178 0.0721682 0.0427859
0.00733265 0.0804747 0.0311998
-0.650487 -0.0555325 0.572539
0.00282937 0.0760296 0.0420652
-0.0254529 0.086622 0.0594092
0.0623073 0.0593785 0.124491
-0.0211148 0.0679411 0.0599864
-0.0673129 0.074974 0.0669073
1.2368 -0.117098 0.97294
2.63039 -0.322429 0.564548
1.81206 -0.377548 1.18656
2.19106 0.262377 1.0068
0.131415 0.115718 0.195135
-0.0349186 0.0561799 0.108381
-0.338543 -0.326191 0.823369
0.117567 0.0721491 0.078092
-0.156749 -0.053298 0.590744
-0.0290151 0.0583364 0.138153
-0.0221627 -0.11359 0.544864
1.86644 -0.304731 2.03663
1.73913 -0.318921 2.13359
1.70642 -0.367942 1.43071
-0.0561139 0.0389947 0.12506
-0.058453 0.0775726 0.0698056
-0.00713067 0.0596701 0.0875648
0.0459973 0.0599521 0.0982839
0.0644345 0.0831035 0.0403808
-0.0355087 0.056201 0.117643
-0.0637505 0.0396055 0.131841
0.0525368 0.0801409 0.0501128
0.0226817 0.0731629 0.0553144
-0.00503674 0.0656967 0.0708156
0.00149914 0.0631408 0.0800557
-0.072874 0.0443721 0.0991469
-0.0706631 0.0369 0.110384
-0.052264 0.0545679 0.100055
-0.0686119 0.0390568 0.105734
-0.397826 -0.249595 0.98052
-0.255522 -0.315718 0.918576
0.124237 0.0922347 0.222235
0.474672 0.00660981 1.06422
0.127239 -0.0371157 0.772649
1.76719 -0.477181 2.08966
-0.0553044 0.0541387 0.103032
-0.0384466 -0.0454627 0.526644
0.703804 -1.02231 2.38828
0.267061 0.225807 0.88367
-0.257574 -0.421382 0.96235
0.0189257 0.0700771 0.0627135
0.00112038 0.0631492 0.07957
0.0572683 0.0467854 0.143459
-0.0087318 0.074386 0.0473196
0.0434588 0.0416928 0.212018
0.167044 -0.0345631 0.814985
0.23747 -0.10674 0.81431
-0.043855 0.0668546 0.0869444
0.0780261 0.0526868 0.126199
0.920162 -0.981676 2.20764
1.64317 -0.312157 1.36538
1.32259 -0.16829 1.04885
-0.0308228 0.0725292 0.0338402
2.23915 0.527675 0.70083
1.71645 0.33078 1.06114
0.0127003 0.0763871 0.0546668
0.0127667 0.0762959 0.0544798
1.0112 -0.755053 1.84121
0.357371 -0.143189 0.929086
0.575456 0.0569316 1.26005
0.423668 0.14674 1.01857
-0.00643954 0.0703626 0.0642764
-0.277999 -0.2581 0.855325
-0.217134 -0.415215 0.959645
0.14196 -0.127569 0.770297
-0.354361 -0.291447 0.736367
-0.0549783 0.0592031 0.0821398
0.459688 -0.393719 1.45607
0.282483 0.183309 2.03872
0.441698 -0.498116 1.47352
0.516633 -0.480776 1.57048
2.01479 0.181467 2.08674
1.66531 -0.13458 1.35384
1.88023 0.215289 1.92409
1.92855 0.157257 1.86216
2.45585 0.590417 0.529081
0.0192427 0.0697486 0.0621676
1.57067 0.611399 -0.273372
1.17473 0.108592 1.02794
1.47014 0.507157 -0.123133
1.08005 -0.0386152 0.709128
1.18281 0.16494 0.982978
-0.081601 0.0713762 0.0713862
-0.0885631 0.0595098 0.0962463
-0.202062 -0.024245 0.602661
0.0741222 0.018808 0.266036
-0.0593934 0.067327 0.0799018
-0.0172403 0.0775367 0.0317803
-0.0391163 0.0523926 0.160799
-0.0219243 0.0727971 0.0450908
-0.0262435 0.0547196 0.163598
-0.0448602 0.0669288 0.0911759
-0.0817403 0.0654381 0.0790709
2.03998 -0.30093 1.94712
3.20981 0.595012 0.364729
3.09906 -0.302605 0.267397
3.32098 0.227169 -0.117559
0.102373 0.0587869 0.111124
-0.184715 -0.0287579 0.549328
1.19175 -0.127367 0.845367
1.24949 0.140287 1.06586
1.08726 -0.0503517 0.752155
2.02175 -0.414422 0.920672
1.31428 -0.132693 1.06954
1.10935 0.247886 0.626624
0.142163 0.0479633 0.232364
2.8024 0.892802 0.502511
1.6638 -0.441047 1.27472
0.0968574 0.0819693 0.0393743
0.569713 0.0024065 1.23941
1.67276 -0.158018 1.37275
0.0509988 0.0654839 0.0851087
-0.176576 -0.0237292 0.528604
0.244955 0.0768334 0.243578
0.0433706 0.0276031 0.204243
0.00941816 0.0682202 0.0667706
-0.00986819 0.0689587 0.0607167
-0.0602815 0.0380679 0.116357
-0.00481288 0.0688662 0.0668288
0.667676 -0.465021 1.73547
0.364393 0.214543 1.0475
0.066062 0.0838121 0.0422412
0.11088 0.0744881 0.0662104
-0.047841 0.0719993 0.0785956
0.0641251 0.0592485 0.113445
1.93874 0.135014 1.70694
1.77861 -0.533811 1.62593
2.36162 0.0028475 2.534
2.77527 -0.206986 0.410715
2.68007 0.448985 0.630632
2.00905 0.419588 0.761883
2.08321 0.423235 1.0182
1.93729 0.442295 0.805203
1.95275 -0.354304 1.00602
2.98799 0.502368 0.45407
2.06303 0.376108 0.685867
2.68965 0.0531495 2.10777
0.0417445 0.0803528 0.0453946
0.00680105 0.0807782 0.0351413
-0.0386999 0.0556798 0.0850647
-0.0492578 0.0643635 0.0880203
-0.0503376 0.0646829 0.0897828
-0.0322671 0.0575128 0.121482
0.043323 0.0487028 0.129462
0.0656979 0.0839642 0.0418676
-0.0760129 0.0751198 0.0734155
2.60749 0.0100675 2.51902
-0.688457 -0.15055 0.493297
-0.756403 -0.116965 0.558159
0.419692 0.123996 1.05318
0.296183 -0.540231 1.55655
0.136205 -0.16409 1.07168
0.311075 -0.157466 0.940849
0.164048 -0.126243 0.79104
0.15667 -0.0512681 0.8039
0.0124227 0.0713796 0.058337
0.00146168 0.0712207 0.0558533
0.0169732 0.0752727 0.0582208
0.0331982 0.0645275 0.0813207
-0.0160026 0.0619332 0.0800387
0.0451427 0.0655992 0.0812058
0.0723568 0.0781438 0.0518354
0.0974514 0.0694293 0.0822542
0.0100993 0.0614482 0.0869297
-0.00277522 0.0743948 0.0461817
-0.00276834 0.0743156 0.0459543
-0.0141568 0.0649993 0.0702371
-0.0585796 0.0502201 0.101587
0.0271149 0.0673424 0.0742672
1.00348 -0.167106 2.1685
1.61233 0.0416719 2.04239
0.630528 -0.063641 2.61822
0.703579 -0.618873 1.99165
0.0643069 0.082685 0.0398225
0.0346824 0.0831093 0.0371776
-0.0513072 0.0668704 0.0822914
-0.295611 -0.00458353 0.618136
0.0383514 -0.0883439 0.635046
0.190503 -0.148014 0.861781
1.44181 -0.486233 2.33175
-0.205715 0.0235412 0.538837
-0.403649 0.11563 0.644868
-0.439842 0.120124 0.764813
0.0376833 0.0452306 0.136852
0.0562996 0.0475213 0.141473
-0.33672 -0.241732 0.803908
-0.0550521 0.0386005 0.115988
0.0158822 0.0755882 0.0597184
-0.352846 -0.215318 0.811056
-0.331959 -0.261054 0.811333
0.018891 0.0699801 0.0624236
-0.0186544 0.0666991 0.176561
1.79939 -0.564097 1.9698
2.12875 0.0211225 2.10583
1.71271 -0.592888 2.14196
2.00862 0.164438 1.97309
1.10064 -0.81804 1.99617
1.11647 -0.151201 0.699064
1.13972 -0.162581 0.716647
1.15183 -0.165182 0.746083
0.995507 -0.0947711 0.61863
2.59987 -0.363131 0.638092
1.00573 -0.0998364 0.635312
1.631 -0.151596 1.32228
1.19028 0.149723 0.991574
0.0342521 0.0855802 0.0210581
0.00463485 0.0801433 0.0336272
0.0342406 0.0855219 0.0209064
-0.145173 -0.0344101 0.534222
0.061378 0.0765916 0.0550124
0.0026462 0.0708118 0.0574772
-0.00869522 0.0680349 0.0649391
0.0128285 0.0715823 0.0583899
0.0182919 0.0673506 0.0707123
0.0263902 0.0657815 0.0764652
-0.552949 -0.336546 0.740947
1.15913 -0.911511 2.03551
-0.330407 -0.233034 0.960988
1.66213 -0.231995 1.38876
1.78456 0.324869 1.17431
2.03567 0.0253147 1.9248
-0.00454831 0.0713088 0.0638651
-0.0108308 -0.271083 0.722207
0.0539766 -0.0425516 0.682317
-0.0322112 -0.175414 0.934819
0.0888386 0.0842009 0.238358
-0.00883558 0.0807638 0.0275698
2.04683 -0.726214 1.39645
1.31071 0.366304 1.24378
0.00967092 0.0787556 0.0366009
2.20478 -0.117595 2.45521
1.57653 -0.247037 2.39209
0.623863 0.136599 1.35442
-0.00247779 0.0833226 0.0183756
-0.0115476 0.0814319 0.0228077
0.0652959 0.0836127 0.0413098
3.35064 0.751825 0.064006
2.97239 0.427456 0.0551259
3.36051 0.211353 -0.0597687
0.662628 0.222313 1.21269
0.841664 0.053622 1.33897
0.776412 0.0369373 1.4933
0.138928 -0.162644 1.06884
0.51452 -0.12588 2.21591
1.06457 -0.216401 1.87959
0.318626 -0.168088 2.29211
0.0219407 0.0240091 0.639249
0.239258 -0.0604597 0.785202
1.81667 -0.587054 2.18549
0.0168774 -0.285606 0.721066
-0.0460932 0.0722725 0.0416883
0.263115 0.0471662 0.828539
1.13754 -0.163308 1.98166
0.781623 -0.909308 2.12587
1.02952 -0.467432 2.23248
0.00253163 0.0708201 0.0577508
-0.0372756 0.0476619 0.115563
0.0442116 0.0537685 0.122543
-0.216692 -0.0411319 0.637018
-0.0272721 0.0551529 0.174517
-0.0276016 0.0749138 0.0392738
-0.0531949 0.0597502 0.0817828
0.359825 -0.13311 0.891987
-0.227822 -0.337746 0.889457
1.71313 0.0238051 1.35179
-0.511199 -0.170447 0.628618
-0.0653463 0.0574064 0.433541
0.00944363 0.0682204 0.0670634
0.728591 0.317224 1.20026
0.354428 -0.152961 0.975569
-0.111592 0.01564 0.580309
0.640298 -0.0257657 1.35828
0.127782 0.0644228 0.104662
0.124351 0.0637605 0.095488
1.88124 -0.443759 1.16181
1.7961 -0.15939 0.367637
1.76228 -0.0132192 1.19979
1.82039 0.221075 1.346
2.9933 -0.188517 -0.0060657
2.63221 -0.138773 -0.162951
1.16359 -0.0816027 0.853791
1.61591 -0.178253 0.846502
1.23486 -0.20863 0.9457
1.0811 -0.129347 0.678613
1.16909 -0.173972 0.771854
1.14089 -0.150897 0.7424
-0.0633483 0.0483219 0.0977862
-0.735552 -0.0703175 0.790123
-0.64774 0.0727505 0.6296
0.039013 0.0414017 0.156236
-0.0814511 0.065302 0.0788648
-0.0592819 0.0787176 0.0715929
-0.00362153 0.0785628 0.0338523
-0.035506 0.0679769 0.0930324
-0.00160292 0.0722693 0.0633731
0.0119643 0.076361 0.0531998
-0.0546584 0.0575787 0.102893
-0.0699565 0.0744356 0.0774621
0.00939659 0.0795705 0.0368624
1.14128 -0.263068 2.47303
0.431583 -0.133874 2.09867
1.48525 -0.408663 2.30217
0.770887 0.0512024 2.11995
0.553761 -0.497137 1.62995
0.791404 -0.137911 1.79858
1.49135 -0.316601 2.48266
1.14141 -0.505683 1.6151
1.72868 -0.156884 2.11817
0.434142 -0.19479 1.03183
0.0962094 -0.0818485 0.863286
0.00967439 0.0682885 0.0663362
-0.0155579 0.0602767 0.435471
0.111874 -0.01163 0.750338
0.349531 0.138509 2.10055
0.948534 0.0663119 2.01318
0.410305 -0.236697 1.53787
1.23868 0.15152 1.0554
1.14099 0.0216839 0.879863
0.981033 0.279994 0.600812
1.43823 -0.769465 2.20651
0.0370794 0.0388901 0.16496
-0.0127682 0.0639752 0.0743657
-0.1428 -0.0382164 0.561791
-0.014235 0.0652459 0.0707639
-0.0390398 0.0553314 0.113735
0.0120171 0.0764998 0.0546044
-0.0606617 0.0644248 0.0758083
-0.00995187 0.0641232 0.0746825
-0.0611417 0.06411 0.0759349
-0.160936 -0.361222 1.07698
0.378719 -0.45391 1.55031
0.000553365 0.0715237 0.0542784
0.00950796 0.0786712 0.0360123
-0.0653858 0.0220802 0.51732
-0.0140154 0.0652348 0.0652876
-0.0546532 0.0563033 0.0921597
0.024475 0.0753363 0.0494268
-0.054282 0.0635655 0.0794484
-0.00885755 0.0719926 0.0611138
0.000497094 0.0716209 0.0545549
1.05946 -0.812266 2.16532
1.0985 -0.438989 2.18897
1.75707 -0.204875 2.13549
2.14792 -0.0807919 2.51405
1.0962 0.147885 0.723255
0.270278 0.147135 0.833656
0.368341 0.126539 0.98301
0.480223 -0.394927 1.48085
0.099546 -0.0828347 0.858566
1.04669 -0.0262864 1.53826
0.0363371 0.0389035 0.164457
-0.0407978 0.0577915 0.102943
-0.0375071 0.0564278 0.11575
0.0244653 0.075289 0.0496195
0.0783623 0.0804278 0.0446876
0.507748 0.131717 1.07701
0.249493 0.0478682 0.838225
0.289451 0.0503914 0.8457
-0.179044 0.316087 1.20576
0.272727 -0.144046 0.951418
-0.0367608 0.0461747 0.10964
-0.0383847 0.0478333 0.121294
0.00560047 0.0692926 0.0627675
0.0550024 -0.0412011 0.63599
-0.336115 0.126662 0.671811
0.00351076 0.0224127 0.448915
0.0396821 -0.062815 0.654264
0.0852387 -0.1743 0.74011
0.229402 -0.0538247 0.740714
-0.0590674 -0.0943152 0.481996
-0.0213627 -0.249245 0.815745
-0.037711 -0.0463232 0.526926
0.853676 -0.0798224 1.6015
0.904382 -1.04622 2.30587
-0.0443165 0.0446205 0.116193
-0.0425507 0.0457936 0.112655
0.0692103 0.0470045 0.169588
0.625402 -0.0462947 1.3648
0.640708 -0.0223644 1.32387
0.419445 0.124954 1.04855
-0.0212593 -0.11277 0.54988
-0.0220399 -0.113265 0.551817
0.463023 0.291376 1.08394
1.34237 -0.813909 2.27036
0.21185 -0.0854495 0.82918
0.0339581 -0.111981 0.915006
0.0258767 0.0239762 0.639008
-0.0683377 0.03637 0.127292
0.285819 -0.151457 0.903893
-0.0520663 0.0577437 0.0941138
0.144414 0.0499033 0.237278
0.106477 0.0146673 0.342444
0.057008 0.0897204 0.0241953
0.040423 0.0853221 0.0348106
0.0293015 0.0811771 0.0341992
0.0524732 0.0884602 0.0248067
0.0573064 0.0899195 0.0246557
0.106105 0.0705466 0.084615
0.0349954 0.0834047 0.0386052
0.0159565 0.0650146 0.0772461
0.00278426 0.0707342 0.0574837
0.0188944 0.0700475 0.0626743
0.016747 0.0757494 0.0574223
-0.0623179 0.0613107 0.0736907
-0.0572587 0.0582089 0.0838062
0.0237654 0.0830304 0.0268616
-0.0344205 0.0573352 0.116687
1.94888 -0.19416 1.06889
1.75961 0.294971 1.19723
1.81966 -0.63154 1.99865
1.99006 -0.340773 1.93567
-0.00486499 0.0753156 0.0447599
-0.0717629 0.047763 0.0986029
0.715768 0.337553 1.23051
0.492304 0.274823 1.12231
0.41686 -0.660785 1.84377
0.0757331 0.0529191 0.121088
1.91815 -0.618799 1.94598
1.63206 -0.167991 1.40084
1.92405 -0.539663 1.89077
1.08054 -0.128033 0.671235
1.19253 -0.179328 0.795178
-0.173696 -0.197783 1.64572
0.646287 0.150113 1.60384
1.65434 -0.102104 1.43181
1.5936 -0.00354473 1.35105
1.55209 0.198638 1.94118
1.16275 -0.108027 0.79393
1.16849 -0.17608 0.766758
1.46459 -0.0431693 0.714557
1.14263 -0.0712551 0.776426
1.78704 0.138374 1.19639
1.90146 0.202659 1.21441
1.59456 0.0960423 1.33305
0.0379571 0.0835514 0.0273641
-0.0383511 0.0169609 0.534594
0.618308 -0.0268516 1.32065
-0.00739811 0.0798233 0.0282917
0.000407503 0.0716842 0.0547825
0.0294387 0.0730522 0.067042
-0.0227838 0.0549755 0.163307
0.0586005 0.0903822 0.0237156
0.014945 0.0765683 0.049177
0.0481104 0.0803299 0.0380768
0.0482065 0.0802768 0.0379509
-0.00716819 0.0795209 0.0280284
-0.0626763 0.0544514 0.0858834
0.0170729 0.0758211 0.0581013
-0.27908 -0.283515 0.870938
-0.00803846 0.0683767 0.0630037
-0.00717228 0.0597677 0.0886809
0.744891 -0.0926463 1.47437
0.0403785 0.0856341 0.0352609
0.070632 0.0854683 0.0301959
0.0631986 0.0626279 0.089948
0.0967868 0.0699994 0.0810849
0.0529372 0.0890064 0.0254061
0.053297 0.0893234 0.0263941
0.241425 -0.102359 0.803769
0.909324 0.0195279 1.69031
1.61814 -0.464942 1.12936
1.71862 -0.584935 1.37109
0.126728 0.0708671 0.0792137
0.168801 0.0823217 0.231484
0.299484 -0.109274 0.815504
1.27037 -0.660109 2.0266
0.446333 -0.671686 1.89022
0.0187813 0.0839497 0.0251194
0.0187981 0.0838474 0.0248773
0.0877094 0.055876 0.107478
1.60164 0.25027 1.39262
-0.0145606 0.0775186 0.0423256
0.0233636 0.0826279 0.0260629
-0.644494 -0.328648 0.793562
0.909225 -0.803803 1.95957
1.65964 -0.55427 1.33752
0.679551 0.32505 1.18046
1.77873 -0.622111 1.43135
0.0519968 0.0190623 0.66458
1.82061 -0.37659 1.1886
0.136637 -0.122277 0.776593
0.982176 0.128522 2.07434
0.119399 0.0827433 0.226498
0.320055 0.0243596 0.902393
0.154721 -0.0325442 0.811485
0.132875 -0.177085 0.75504
-0.0976698 -0.174471 0.99055
-0.0594423 0.0549297 0.538893
0.0631207 0.0462018 0.139127
0.0673434 0.0495369 0.134412
0.0461505 0.0537907 0.123625
1.16188 -0.0820183 0.8542
1.93265 -0.679798 2.13276
1.78186 -0.213829 2.15552
2.18489 -0.223605 1.82317
0.766193 0.28568 1.12264
0.812074 -0.109418 1.55523
0.490016 0.08539 1.07537
0.13516 0.0585773 0.235287
0.0629856 0.0472171 0.141425
0.585224 0.0142477 1.26142
-0.338019 -0.317944 0.836018
0.123225 -0.64258 1.43193
0.0849202 0.0662748 0.0921538
-0.0457576 0.0597975 0.0945088
0.0150224 0.0773236 0.0516559
-0.00735404 0.079721 0.0280197
-0.0590372 0.0500081 0.102796
1.19118 -0.890923 2.08079
1.77358 -0.301638 2.14426
1.5195 -0.564406 2.26928
0.0205723 0.0737419 0.0539284
0.0277887 0.0670011 0.0748597
-0.347607 -0.241 0.770334
-0.489932 0.0774584 0.766774
-0.415183 -0.175371 0.748323
-0.0123926 -0.286073 0.746315
1.00211 -0.0787344 0.647271
1.7243 0.629112 -0.263076
1.07832 0.175135 0.842042
1.45743 0.399609 0.334676
1.22222 0.336081 0.690564
1.29262 0.273415 0.50806
1.45054 0.605836 0.551612
0.991947 -0.076208 0.629758
1.3845 -0.217034 0.971447
1.38673 0.274504 0.514128
2.18473 0.850439 -0.169473
1.53056 0.368856 -0.675025
0.972735 0.0407881 1.39235
0.416714 0.12035 1.02934
0.172485 -0.0650852 0.828546
0.267721 0.126396 0.868545
-0.00805843 0.0642162 0.0745809
1.2534 -0.141537 0.988062
0.0437713 0.0534581 0.129686
-0.016003 0.0693482 0.0578314
-0.0257117 0.0729426 0.0462351
0.00647722 0.0695728 0.061894
0.0142127 0.0643793 0.0782685
-0.0518266 0.0573866 0.097716
-0.0137489 0.0652993 0.0700275
0.627579 -0.798611 1.96671
-0.478514 -0.209471 0.627111
0.0119197 0.0760994 0.053206
0.00139862 0.0631126 0.0798742
-0.0547715 0.0562066 0.092058
0.0240876 0.071653 0.0697678
0.0244916 0.066209 0.0755348
0.0270297 0.0617623 0.0854637
-0.00800928 0.0641197 0.0749204
-0.00805298 0.0641356 0.0749581
-0.00606636 0.0714265 0.0543936
0.00145088 0.0712368 0.0558563
0.00144422 0.0712451 0.0559643
0.0581369 0.047489 0.144727
-0.00176513 0.071497 0.0529646
-0.0728677 0.0445501 0.0992001
-0.0158666 0.0692443 0.0576525
0.0330991 0.0764516 0.0480021
-0.00819465 -0.249568 0.738125
-0.267733 -0.0132726 0.597126
0.0798998 0.0329127 0.285083
1.78099 -0.0577791 1.20425
1.82868 0.394404 1.31831
1.70544 -0.227626 0.842807
0.0946161 -0.208648 0.803238
0.0452597 0.0537427 0.123142
0.302395 0.0699398 0.840251
0.141087 -0.537753 1.46402
1.6244 -0.00722441 1.33235
1.61643 0.146304 1.52459
0.0633767 0.0469547 0.140629
-0.0306985 0.0589739 0.185997
-0.0948633 -0.0407492 0.477722
0.469787 -0.178923 1.03231
-0.356263 -0.254356 0.814862
-0.38085 -0.356046 0.804339
-0.832347 -0.265931 0.644589
2.11964 0.464385 0.905293
1.63168 -0.387637 1.23898
1.90777 0.0116048 1.82966
1.92449 0.0289673 1.8749
4.93527 -0.164415 -1.57365
2.17507 -0.361137 0.826186
0.0220716 -0.226876 0.731157
0.00976041 0.068313 0.0662442
-0.0559685 0.037962 0.104925
0.0127107 0.0714242 0.0577543
-0.00730893 0.0682738 0.0631308
1.79489 -0.685836 1.9223
1.41987 -0.7686 2.19914
1.28435 -0.356771 2.64456
0.0331491 0.0228116 0.63347
0.0995759 -0.151118 0.859511
0.148662 -0.123924 0.814146
1.03815 0.575635 0.748994
0.0178585 -0.254673 0.768159
1.01572 0.561793 0.733892
0.0376938 -0.153249 0.705657
0.0361311 0.0571951 0.632547
1.19655 -0.890393 2.14777
0.336372 0.0505032 1.98594
0.617125 -0.438208 1.61996
0.150291 -0.119446 1.71515
0.695503 0.0913017 1.93214
0.804493 0.0483255 2.10094
0.413666 -0.382524 1.38996
0.271571 -0.399428 1.58746
0.141754 -0.0861739 1.71482
0.279736 -0.0764829 1.89613
0.342593 -0.00661102 1.99722
0.0398055 0.129537 1.78553
1.82348 0.289452 1.2722
1.99448 0.221347 1.81345
2.53076 -0.165029 0.67028
1.24747 -0.112406 0.990688
1.21747 -0.133261 0.940702
1.45005 -0.102861 0.854779
0.338041 -0.441343 1.52929
0.460941 -0.419796 1.45049
0.715929 -0.205398 2.70397
0.243583 -0.279655 2.22299
0.170263 -0.00479913 0.832902
0.37334 0.131178 1.00385
0.302213 0.216521 0.916466
1.0547 -0.0261752 1.54845
0.0664219 -0.0660332 1.06979
0.124606 -0.209169 1.24606
0.371681 -0.200985 2.15969
0.612377 -0.0101406 2.40319
0.312609 -0.436976 2.30432
0.611548 0.00687694 2.45289
0.319586 -0.0264889 1.9692
0.757873 0.00383839 2.43166
0.759648 0.00427878 2.43449
1.14387 -0.589 2.41704
0.962699 -0.136008 2.13838
0.421627 -0.121831 1.02187
0.332496 -0.14734 0.91154
0.218518 -0.17659 1.12652
0.356205 -0.130131 0.872156
0.0120835 -0.168763 1.09983
0.758533 -0.0275555 1.48539
1.8831 -0.313778 2.04063
1.94797 -0.178257 2.16715
1.63153 -0.279808 2.24992
1.48386 -0.0966945 2.40732
0.572661 0.0639491 2.35838
0.36961 -0.186663 1.10533
-0.0773007 -0.275378 1.7715
1.99644 0.192345 2.02255
1.83672 0.254322 1.85714
1.76508 -0.67604 2.04367
0.0521718 0.00558228 0.670182
0.0813457 0.0308752 0.271458
-0.294777 -0.267972 0.896904
-0.22269 -0.426047 0.99084
0.236796 -0.052687 0.792123
-0.0627431 0.0569569 0.428954
-0.462433 -0.036684 0.725252
-0.0813654 0.0684352 0.510172
0.137337 -0.0503462 0.760169
-0.0694837 0.0373983 0.138463
1.63534 -0.748774 2.35136
0.495092 0.281998 1.11768
0.173872 -0.0650693 0.830215
0.474613 0.104318 1.10991
0.0184153 -0.098801 0.926217
0.647052 -0.648817 2.07393
0.841215 -0.536817 2.02269
0.34467 0.306082 0.990718
1.6715 -0.455997 1.32221
0.114707 0.0654383 0.251454
0.557822 0.342811 1.08279
1.08143 0.33138 0.785459
0.871011 0.252612 1.30404
1.08452 -0.612484 1.88458
-0.56934 -0.296562 0.706088
-0.358021 -0.220085 0.770619
1.64741 -0.58107 2.12351
1.03955 -0.788018 1.91538
1.45083 0.545475 -0.394825
1.58275 0.349415 -0.597373
1.05694 -0.0373258 0.746177
1.5824 0.559433 -0.202045
1.48209 0.415207 0.294185
1.47515 -0.0570201 0.628901
1.72627 -0.0177632 0.696259
0.103409 -0.166177 0.710166
0.953441 0.259292 1.21979
1.71632 -0.384983 1.19197
-0.667184 -0.189702 0.533577
-0.28347 -0.288933 0.881103
1.66666 -0.136137 1.29612
1.87484 0.260106 1.89656
1.70758 0.319184 1.20966
0.0331857 -0.134224 0.604496
0.0556201 0.022981 0.222308
-0.0174493 0.0760054 0.0356981
0.0461154 0.0540414 0.128282
-0.0425572 0.0524264 0.1751
0.0387345 0.0406774 0.153708
0.108406 0.0254322 0.730651
0.105148 0.0236703 0.730305
0.0332462 -0.15642 0.715412
1.0867 0.0735702 1.25506
1.68242 -0.346843 1.14724
1.25775 0.394098 1.32355
0.45977 -0.421704 1.45536
1.64787 -0.420422 1.23695
1.32853 -0.245282 1.03404
1.46705 -0.0407524 0.71388
1.69937 0.363971 1.21092
1.79643 -0.240277 1.19365
1.83067 -0.381406 1.17271
1.46433 -0.144545 0.946554
1.6529 -0.228419 1.36838
1.70808 -0.274948 1.23511
0.385963 -0.397918 1.40795
0.3541 -0.543544 1.72639
0.0299113 -0.094927 0.906894
1.93036 0.446303 0.82273
-0.0529599 -0.368741 1.34647
0.068916 -0.184881 1.10246
-0.0156854 -0.440895 1.22797
0.486203 0.0858807 1.07963
0.389436 0.214782 1.01947
1.18284 0.467156 1.14225
0.155077 -0.185385 0.760889
1.7281 -0.00175976 2.19515
0.266696 0.126652 0.866862
1.20126 -0.853953 2.1393
0.926558 0.0652832 1.28923
1.70472 -0.245137 1.24654
1.10275 0.245384 0.627411
0.988174 0.260055 0.589461
1.18451 -0.147259 0.807136
0.211365 -0.0847841 0.835288
0.388766 -0.476286 2.30345
1.96674 -0.549363 1.91614
1.67629 -0.438908 1.27634
1.60542 0.268292 1.00036
0.0853925 -0.00157732 0.724161
0.307322 -0.0767395 0.878781
0.135348 -0.113278 1.75048
1.84249 0.228354 1.35262
1.7087 -0.456515 1.3061
1.90539 -0.427909 1.00591
2.2611 -0.193073 0.994172
1.6727 -0.472775 1.24489
0.365229 0.0991141 2.00105
0.274048 -0.0767997 1.90152
0.314978 -0.263301 2.32828
0.146981 -0.222597 1.27792
0.583384 -0.270521 2.46838
0.541427 -0.401623 2.43456
1.06051 0.21621 0.574973
0.127006 0.356741 1.12876
0.0512834 0.0210234 0.667743
1.13848 -0.270294 2.46438
1.07915 -0.28839 2.49483
0.627779 0.13831 1.96706
0.915916 -0.158955 1.68294
2.61545 0.0295489 2.07425
1.94061 -0.682777 2.13483
3.47367 -0.176788 0.10431
2.05278 0.46594 0.936305
1.70209 -0.281585 1.23292
1.77516 0.208934 1.22159
1.58433 0.241303 1.012
1.26846 -0.191373 2.43108
0.500677 -0.309886 2.49811
1.44264 -0.389736 2.35502
1.01441 -0.540697 1.97688
1.2924 -0.129815 2.48988
0.540865 -0.164756 2.21692
0.15307 -0.0675647 0.805231
0.162375 0.0793748 0.942576
0.735489 0.322361 1.2146
0.408231 0.257599 1.06824
0.37661 0.329575 0.970424
2.82535 0.0694262 -0.204637
1.81377 -0.089881 0.519432
2.21531 -0.499555 0.844508
1.88609 -0.32135 1.07518
1.64716 0.149682 1.38914
1.78853 -0.201368 1.19672
0.36738 0.104481 0.936455
0.474154 0.00351899 1.06536
0.834627 0.325878 1.3407
-0.0338692 -0.263334 0.816059
-0.012494 -0.191399 1.12988
0.385875 -0.16667 0.998555
0.365611 -0.0984137 0.948676
2.38751 -0.557334 1.566
1.77158 -0.463751 1.0948
2.13936 -0.422182 0.816993
1.92549 -0.381609 1.05619
1.8724 -0.419742 1.01119
1.88857 -0.141184 1.08124
0.996475 -0.0307927 0.675219
0.881406 0.176621 1.68133
0.018788 -0.672803 1.72393
0.503653 -0.390139 1.48419
0.0994208 -0.0061733 0.734333
-0.0925994 -0.042402 0.763336
0.87781 0.182516 1.68813
1.58324 0.322953 1.29853
1.85045 0.199779 1.34744
1.04291 0.213845 0.811239
1.45314 0.437472 1.05711
1.03088 0.404021 0.667692
1.07134 0.319239 0.781942
0.382078 -0.392215 1.41729
-0.069293 -0.0746702 0.475165
0.120251 0.0893638 0.238709
0.114407 0.0654437 0.253429
1.81648 0.00880454 1.69579
1.70041 -0.591255 1.36255
0.917172 -0.148243 1.65704
1.29725 -0.853849 2.32301
0.737209 0.210152 1.54722
0.11481 0.365946 1.15306
0.336799 0.280507 0.996573
0.378041 0.325545 0.976196
0.419941 0.126148 1.05844
0.57516 0.364101 1.13926
0.0210135 0.0245155 0.639694
0.89314 -0.22836 2.44293
0.255824 -0.782468 2.03235
1.73936 0.175698 1.22172
1.65172 -0.135169 1.32218
1.69423 -0.309266 1.37498
0.9796 0.0898427 1.22973
0.154084 -0.534564 1.4696
0.544378 0.32034 1.03597
1.68722 0.294087 1.69034
1.16355 0.4388 1.16957
1.83468 -0.586519 1.68474
1.01445 0.0924486 1.20081
1.19719 -0.898587 2.08637
0.660242 0.128452 1.37883
0.89295 0.236164 1.27879
0.113198 0.373833 1.1688
0.0493086 -0.141906 0.633471
0.0412429 0.0554241 0.625276
0.453901 0.245558 1.14621
0.0112638 -0.246938 0.714016
0.739226 0.0919396 1.51282
0.927929 0.192492 1.70345
1.70406 -0.515071 1.84757
0.132504 -0.0379639 0.76404
0.300367 0.0743547 0.853317
0.359669 0.0470129 0.91993
0.474183 -0.000210509 1.07083
0.0410577 -0.150701 0.886822
0.144986 -0.180983 0.764354
0.0466549 -0.161621 0.736078
0.0574199 0.0237524 0.218625
0.431983 0.0507268 1.04903
0.0551012 0.0576174 0.204162
0.45076 0.154744 1.00747
1.04138 0.534112 0.884105
0.0247172 0.022873 0.639408
2.06158 0.00817793 1.93848
0.436192 0.111303 1.08558
1.10936 0.343565 0.806062
-0.274395 -0.259659 0.870924
0.419253 0.125143 1.04975
0.130651 0.0408809 0.915513
1.72722 -0.338136 3.31493
0.908051 -0.178938 1.88092
0.841422 -0.0802829 1.77195
0.596967 -0.447203 1.64371
0.808313 0.0759841 1.92794
-0.301727 -0.00463407 0.622856
1.73583 -0.0234549 1.55535
1.8941 0.200062 1.20525
0.0328882 0.0644201 0.0810222
0.243504 0.046508 0.241008
0.156571 -0.201908 0.768217
-0.0914244 -0.188211 0.976528
1.29115 0.244178 0.468062
0.260256 0.0454517 0.826102
-0.0578193 -0.410984 1.17094
0.955898 0.255001 1.23059
1.33927 -1.01633 2.20077
-0.0204828 -0.112436 0.550721
0.0272817 -0.0487122 0.659867
0.524201 0.0921959 2.28976
0.46669 -0.180859 1.04158
-0.0679276 0.0196162 0.535061
1.62259 -0.17729 0.847679
1.15071 -0.175234 0.776394
1.00616 -0.0790226 0.646575
1.02443 -0.0355086 0.710283
1.04344 -0.0969085 0.818229
1.14924 -0.0365674 0.769877
1.10355 -0.171764 0.6602
-0.625211 0.0592676 0.825336
-0.0348584 0.00161 0.549536
-0.0604335 0.0571816 0.426307
0.0297303 -0.0477356 0.569833
1.66843 0.0147517 2.30257
1.77004 -0.156177 2.16643
-0.160292 0.0359253 0.512241
-0.421212 0.146286 0.783799
0.123811 0.0846429 0.225092
-0.314633 0.120836 0.642887
-0.0325468 0.00770135 0.518821
0.0905731 0.0810882 0.23311
0.131697 0.0526393 0.23113
0.590053 -0.388838 2.4505
1.43338 -0.619454 2.25131
0.0311769 0.056893 0.637403
0.0380485 0.0546507 0.624937
0.177293 -0.198659 0.817138
0.171077 -0.0938233 0.800015
-0.019054 0.0676587 0.1773
-0.477394 -0.228921 0.655761
1.39493 0.546927 -0.29501
1.04756 -0.0335944 0.732693
1.99083 0.215696 -1.7699
1.40283 0.561845 -0.307698
1.95063 -0.349504 1.01106
1.95255 0.164332 1.99269
2.1094 0.0240098 1.96747
2.49598 -0.0838619 2.43354
1.89389 -0.375583 1.05636
2.60942 0.00601054 2.51917
2.11489 0.386176 1.07723
1.8616 0.318533 0.814703
1.66354 -0.0101815 2.13205
2.09518 0.376186 1.08103
1.1734 -0.289623 2.48594
0.6821 -0.817735 2.05989
-0.503287 -0.211671 0.60613
-0.501081 -0.209526 0.606886
0.503431 0.334149 0.98822
0.170454 -0.0366134 0.841502
1.52838 -0.560571 2.26506
0.975114 0.0872826 1.2244
1.17453 -1.02061 2.25024
0.476731 0.102777 1.11568
1.20539 -0.848695 2.13461
1.13384 -0.104064 0.760681
1.99108 -0.537093 1.13101
2.18971 -0.38131 0.826063
-0.342196 -0.325925 0.740772
1.1238 -0.831556 2.30756
0.917815 0.187062 1.69295
1.55285 0.23115 1.56556
0.384631 -0.828898 1.84679
0.795588 0.060466 1.32855
-0.0381571 0.0535787 0.119469
-0.0477097 0.0486487 0.490534
0.619111 0.132307 1.34002
1.73572 -0.160137 2.12637
-0.0484791 0.0520554 0.20145
-0.240578 -0.267857 0.904999
-0.331451 -0.333054 0.845734
0.141184 -0.0568634 0.800892
0.0263919 -0.248679 0.720265
0.100313 -0.00663087 0.732827
-0.046402 0.000645774 0.576101
1.45099 -0.354337 2.3588
1.74621 -0.920194 2.49125
0.755878 -0.0124542 2.4657
2.06093 0.363394 0.673211
1.9255 -0.546837 1.88955
1.67623 -0.310377 1.37163
1.69206 0.337142 1.00511
0.638459 0.212868 0.853286
0.409435 0.271697 1.03297
0.266473 0.225665 0.881064
0.45149 -0.590587 1.83682
0.296697 -0.540463 1.55019
0.204319 -0.392832 1.27111
0.135917 -0.194898 0.746265
0.844721 -0.0731751 1.58225
0.107979 -0.152554 1.10244
0.285624 -0.155863 0.973018
0.251253 -0.145242 0.974245
1.15915 0.189159 1.90461
0.754465 -0.0555452 1.46808
0.41968 -0.17315 0.998799
-0.0290869 0.0580798 0.183546
1.65941 -0.191442 1.27034
1.67318 -0.157835 1.33331
0.295014 -0.109756 0.815331
0.131527 -0.0721191 0.7985
0.134786 -0.0741436 0.842585
-0.0252009 -0.118639 0.563107
-0.0617019 -0.00937174 0.491127
-0.160468 0.03555 0.504093
-0.0306429 0.059835 0.140536
0.141741 0.063775 0.22493
0.381286 -0.204038 2.12672
0.266834 -0.105912 2.27704
0.32654 -0.0743875 1.95013
0.00496237 0.000735582 0.500684
-0.0193429 0.0554894 0.414766
0.0346792 -0.0286959 0.692422
-0.367393 -0.342507 0.77728
-0.0196112 0.00149077 0.626161
2.08016 0.422365 1.02238
1.92137 -0.024556 1.69102
1.64071 -0.45142 2.19292
0.567042 0.0585046 1.26302
0.289041 -0.419689 1.42851
1.34644 -0.740104 2.09266
1.56785 -0.128997 2.38828
0.571304 -0.767806 1.92902
0.0575113 -0.087344 0.666061
-0.041583 0.012472 0.565
-0.466023 -0.249624 0.769384
-0.245466 -0.0416687 0.661318
0.130763 0.0520549 0.230801
-0.241147 -0.355837 0.91485
0.0871891 -0.156087 0.689966
0.460551 -0.418373 1.44389
0.150059 -0.216481 1.21326
0.386425 -0.400801 1.41412
-0.0632916 -0.204999 1.36892
0.14356 -0.128732 0.772704
0.495341 0.284718 1.11787
0.357933 0.0411414 0.910557
1.43863 -0.445299 2.34204
0.316132 -0.138905 0.965023
0.32221 -0.155554 1.00529
0.100723 -0.316795 1.73408
0.764093 -0.0518877 1.49046
1.15006 -0.245354 2.43533
0.222084 0.0848046 1.86429
0.969483 -0.298395 2.28838
0.284685 -0.40708 1.47953
1.13705 -0.203409 2.28584
0.337545 0.0458061 1.97472
0.873209 -0.470205 2.27317
0.0732657 0.0320203 0.270543
0.094947 0.0502279 0.228504
-0.683464 -0.417014 0.921499
-0.100209 -0.363693 1.06227
0.676147 0.213492 0.894098
0.169589 -0.00719317 0.824851
0.101069 -0.1512 0.852352
0.160078 0.0797816 0.950317
0.0207824 -0.265449 0.705661
0.155648 -0.066932 0.799488
0.305206 0.212343 0.915147
0.666303 0.267012 0.95241
0.460372 0.290804 1.0846
0.465953 -0.428314 1.45735
0.157595 0.403779 1.0815
0.0504034 0.0204379 0.668299
0.964324 0.252104 1.2344
0.190723 -0.164319 1.0744
0.86984 -0.138644 2.43541
1.54004 -0.32922 2.65979
0.388337 -0.387599 2.32528
0.425076 -0.170031 1.0064
0.421301 -0.121749 1.02211
0.147792 -0.171979 1.12189
0.0861215 -0.15735 0.679225
-0.0249108 -0.131575 0.554055
0.0318325 -0.0154895 0.594565
0.416046 0.128028 1.03345
0.154282 -0.183311 0.760897
2.59263 -0.273658 0.593133
1.7227 -0.504182 1.57495
2.13265 -0.0891284 0.911817
1.85589 0.200253 1.35071
1.62026 -0.00993834 1.39823
1.30058 -0.134734 0.992011
1.96389 0.166619 2.03897
0.0861876 -0.00165766 0.725177
0.191039 -0.348521 1.34645
0.245601 0.116007 0.845818
0.0864986 -0.00213182 0.725029
0.362447 0.190567 0.989884
0.469154 0.294556 1.07671
0.246814 -0.0559232 0.789039
-0.0104516 -0.255661 0.760045
0.47307 -0.00200493 1.06264
0.171624 -0.00469844 0.823702
0.804546 0.238472 1.35678
1.59442 0.569793 -0.507291
1.58927 0.399263 -0.477303
1.74442 0.301957 -1.04071
1.69212 0.499796 -0.129786
1.64426 0.334201 -0.559166
1.78142 0.298257 -0.988132
-0.00476914 0.138173 0.683202
0.359494 0.052985 0.918708
-0.0624007 -0.113414 0.49355
0.285261 -0.172566 1.06672
1.09736 0.149006 1.81214
0.215991 -0.176205 1.16202
0.342578 -0.184033 1.13215
0.87741 0.175136 1.68003
1.77241 -0.107753 1.19857
1.65514 -0.204086 1.27307
1.11519 -0.0653723 2.25076
0.520563 -0.168384 2.21198
-0.633219 -0.447405 0.762278
0.0476721 -0.155843 0.723735
0.0484029 -0.154991 0.726761
1.45326 -0.109159 0.915355
1.91248 -0.438202 1.10651
2.95559 0.493039 0.537595
2.07893 -0.297372 1.9757
2.18356 -0.32872 0.835905
0.0560649 0.0458794 0.146759
-0.0540063 -0.0098099 0.455011
-0.248071 -0.0141656 0.565798
0.0421703 0.0418027 0.213047
-0.0676101 -0.011875 0.501677
-0.0690063 -0.057094 0.494148
0.729222 -0.690667 2.1819
0.458357 0.123491 2.16187
-0.00707921 -0.285062 0.747472
0.776625 -0.512361 1.91123
1.1606 -0.0405732 2.26087
1.1675 -0.0342912 2.20636
0.174323 -0.0477564 0.852259
0.0531678 -0.150227 0.594918
0.0137019 0.0210233 0.507785
0.0817208 0.0416939 0.227364
0.169992 -0.486682 1.4912
0.595655 -0.447649 1.64635
0.179622 -0.459901 1.49027
-0.0489916 0.300034 1.18502
0.149687 -0.210227 0.744934
0.999671 -0.586991 1.89
1.63213 -0.436469 2.1901
-0.0628058 -0.0983855 0.495701
0.26577 -0.125671 1.06033
1.90288 -0.429371 0.992504
1.86536 -0.519234 1.5205
1.4771 -0.0983241 0.900346
1.75773 0.1312 0.942587
1.69177 -0.459276 1.40217
1.88097 0.329511 1.16347
3.17921 -0.169505 -0.101655
1.27297 -0.811988 2.24794
0.478978 -0.56226 1.74556
1.77074 -0.417231 1.17703
1.25063 -0.12173 0.98959
2.13233 0.36777 0.993205
1.82062 0.206689 1.68168
1.71075 -0.427546 1.22663
1.33207 -0.812315 2.24713
0.913703 -0.789043 1.86528
-0.242525 -0.358674 0.917228
0.862211 -0.144492 1.60024
2.60413 -0.16688 1.67773
2.21028 -0.263029 1.81652
1.91893 -0.0203245 1.72787
0.244598 -0.101399 0.791054
0.0388231 -0.152327 0.889994
1.54624 -0.125138 0.895462
1.79537 0.150837 1.21101
1.70441 -0.276751 1.23495
1.62105 -0.00971567 1.39894
0.312563 -0.15767 0.931531
0.131292 -0.169685 1.08251
0.164161 -0.186539 0.776955
0.156471 -0.0505264 0.805118
0.344172 0.30577 0.994142
0.469686 -0.17958 1.0328
1.44516 0.70886 0.44842
-0.332508 -0.257935 0.811376
0.379321 -0.389318 1.41954
0.518154 -0.482323 1.57781
1.92971 -0.373995 1.04425
-0.0191681 0.065022 0.462393
-0.445762 -0.164829 0.614134
-0.619046 -0.314182 0.766149
-0.0241479 -0.152006 0.975941
-0.000187792 -0.249791 0.753022
-0.467481 0.0808197 0.672572
0.0574173 -2.10415e-05 0.666613
0.742481 -0.0579191 1.47168
0.0538002 -0.106119 0.663487
-0.255407 -0.333603 0.888841
0.0726755 0.0331254 0.271011
-0.0634888 0.0186814 0.528798
0.0329354 -0.00881125 0.646004
0.055461 -0.153479 0.705986
0.0910489 0.0800569 0.230521
-0.0088178 -0.0625646 0.611313
0.0729711 0.0314759 0.269546
-0.060897 -0.0935126 0.487471
0.0926498 -0.103051 0.706198
-0.453632 -0.111569 0.960931
-0.470809 -0.115784 0.9873
0.842784 -0.0738943 1.57565
1.23379 -1.11023 2.28198
1.49505 -0.55892 2.24043
-0.282988 -0.24103 0.808695
2.03938 0.0865774 2.01652
1.59024 0.250527 1.00901
1.71702 -0.144303 2.10517
0.931077 -0.146748 1.71236
1.03679 -0.0983545 2.80635
0.831592 -0.391156 2.28636
0.909858 0.000803614 2.49889
0.374094 -0.378454 2.29412
1.84707 0.0625574 2.30662
1.14829 -0.321996 2.48736
0.884784 -0.680895 2.111
1.05658 -0.0122825 1.53609
0.418129 -0.154431 0.950416
0.548553 -0.0245307 1.2229
0.120147 -0.0437839 0.771736
0.128432 -0.1828 0.733257
0.168351 -0.00901172 0.829202
0.50033 -0.885015 2.01404
1.0812 -0.129329 0.67515
1.05683 -0.077058 0.644123
3.20287 -0.306387 0.241347
0.837377 -0.617569 1.98642
1.05942 -0.16482 2.16685
1.7614 -0.287467 2.13864
1.6253 -0.31748 2.23132
0.243767 -0.192258 1.158
0.737199 -0.0615174 1.47926
0.382579 -0.399731 1.41794
0.838081 -0.388989 2.28507
0.725832 -0.667412 2.0893
0.0841083 -0.429311 1.36451
0.424194 -0.671935 1.88996
0.180385 -0.121094 1.90936
1.52773 -0.585721 2.27596
1.47316 -0.312863 2.34553
0.0565016 -0.160979 0.855321
0.358057 -0.540074 1.71537
0.517355 -0.168514 2.20921
1.10207 -0.290889 2.338
-0.128875 -0.138756 1.71568
-0.117068 -0.139671 1.72574
0.0706445 -0.0733367 1.71868
0.314318 -0.320492 1.26176
2.11156 -0.459556 1.57351
2.30958 -0.5836 1.57465
1.84093 0.274736 1.16885
1.6663 -0.458124 1.22988
2.61158 -0.231679 0.486846
2.85751 -0.208485 0.365553
0.694433 0.315266 1.14403
0.268473 0.225636 0.890545
0.104151 -0.166515 0.708817
0.749473 -0.420732 2.50071
0.544581 -0.793002 2.20141
0.743811 -0.652215 2.03197
0.809253 0.0722587 1.91837
0.997784 -0.0292813 0.67552
1.0082 0.438909 0.695893
1.33931 0.366052 1.27667
0.645998 -0.0175408 1.33263
0.180524 -0.0600039 0.840891
0.373615 0.0735755 0.977052
1.10525 -0.171313 0.658263
1.31095 0.106035 1.14379
3.06795 -0.301917 0.283982
1.71878 -0.116646 0.574477
0.427774 0.106875 1.06735
0.302319 0.0755824 0.844778
0.0949319 0.178122 1.01143
0.0299939 -0.0480248 0.656795
0.617312 0.131859 1.33769
2.905 0.233713 -2.56361
2.16224 -0.0754469 2.52456
0.955239 -0.168251 2.09804
1.04097 -0.178345 2.31719
1.65774 -0.0154472 2.35114
1.2675 -0.0674942 2.33016
0.170536 -0.00617609 0.825105
0.0959483 0.177511 1.01045
0.304329 0.214563 0.930187
0.0406998 -0.0674333 0.644471
1.9592 -0.0992973 0.568949
1.78388 -0.0522143 1.20016
1.81994 -0.33375 1.17143
1.32021 -0.163224 1.04802
1.03912 -0.0470254 0.727115
0.0404717 -0.0473774 0.656506
-0.0796892 0.054021 0.447249
-0.335948 -0.325442 0.78517
0.43615 -0.0206362 1.04706
0.739734 0.213209 1.55029
0.770353 -0.103389 1.52343
0.581901 -0.270768 2.4808
0.0413455 -0.18516 0.70548
-0.00373644 0.135799 0.679996
-0.00578741 0.137607 0.683157
0.105212 0.024987 0.73307
0.622255 0.137606 1.35197
0.0906195 -0.0993323 0.865338
0.375153 -0.451848 1.54451
0.0409025 0.0425741 0.215293
0.0407554 0.0414122 0.213193
-0.0914769 0.0326295 0.497737
-0.058433 -0.156406 0.948583
0.801314 0.055116 1.32795
1.09019 0.335196 0.791252
1.0849 0.334314 0.781766
-0.0174214 -0.443723 1.22841
1.03403 0.530385 0.877686
1.13691 0.45059 1.01721
1.0813 -0.924774 2.11637
0.98309 0.0934976 1.1699
1.56383 -1.03623 2.123
1.61593 -0.451132 1.23065
1.70033 -0.470373 1.20297
1.6386 -0.456302 1.23621
1.13166 -0.138668 0.735227
0.287571 0.0361378 0.876573
0.35712 0.0545899 0.921014
0.271492 -0.0314318 0.84196
0.326327 0.123401 0.90349
-0.356974 -0.29681 0.938527
-0.0986693 0.0189059 0.507217
-0.101689 0.019204 0.512335
0.236448 0.0772592 0.278669
0.872452 -0.137421 2.44309
2.16131 0.251013 1.01534
1.44498 -0.108088 0.90894
1.72432 -0.0738167 0.520954
1.70514 -0.364184 1.42787
2.01719 -0.413013 0.92196
1.89148 -0.419395 1.00518
1.90561 -0.419115 1.06314
0.773372 -0.85849 2.11749
0.555545 -0.55865 1.71714
0.24251 -0.519825 1.5912
0.911575 0.00813389 1.48624
0.223526 -0.135812 1.93319
0.432897 -0.00961769 2.08839
0.668506 0.0932168 1.99848
0.379266 0.197455 2.1282
0.298294 0.13432 1.96643
0.421716 -0.082579 2.09825
0.441404 -0.171972 0.989625
0.453901 -0.191185 1.05476
0.298908 -0.149255 0.956304
0.38285 -0.159769 1.08835
0.322464 -0.169346 0.994435
0.626107 -0.0400071 1.32901
-0.0384865 -0.361833 1.32268
1.80091 -0.202561 1.20121
2.48286 -0.284989 0.65639
0.300568 0.140654 1.94385
0.281567 -0.446681 1.50339
1.91949 -0.0362102 1.71819
1.66032 -0.203558 1.27451
1.28918 -0.13723 1.0419
0.507442 -0.068559 2.18021
0.408129 -0.182794 1.08414
0.37465 -0.193612 1.11842
0.439498 -0.188602 1.02327
0.194515 -0.163102 1.07617
1.35383 -0.179577 0.890972
3.08844 0.564563 0.43462
2.78433 0.506523 0.588896
2.93687 0.136586 0.447334
1.00016 -0.107717 2.24557
0.790162 -0.497424 2.76473
0.97013 -0.656478 1.89229
1.70547 0.321135 1.06597
1.78675 0.211061 1.2167
0.970201 -0.298704 2.30014
0.804365 -0.130317 1.76193
1.18308 -0.292836 2.49721
1.48563 -0.410495 2.30677
0.523494 -0.480588 2.28704
0.460113 -0.0430185 2.16368
0.218268 -0.0629399 1.67802
0.383355 -0.160221 0.964868
0.364375 -0.184882 1.10995
0.429068 -0.171757 1.00533
-0.00836735 -0.209039 1.2955
0.407077 -0.18191 1.08816
0.385778 -0.165426 1.00017
0.246909 -0.142318 0.980009
0.322954 -0.124535 1.002
0.306378 -0.155646 0.996106
-0.0400561 -0.179843 1.20618
0.848623 0.0491161 1.36003
0.332839 -0.189276 1.05763
0.379554 -0.381422 2.30745
0.415346 -0.161804 0.980545
0.913086 -0.616815 1.93348
0.252236 -0.190228 1.1491
0.0478045 -0.181076 1.1329
0.335742 -0.190713 1.04777
0.828375 0.0626008 2.06711
0.950733 0.0169379 1.73315
0.974721 -0.776823 1.92552
1.50528 -0.387837 3.10892
1.27214 -0.824983 2.2579
0.128556 -0.179465 1.14177
1.60893 -0.0208481 2.28052
1.632 0.120896 1.50825
3.35178 0.344604 0.18658
1.62443 0.105359 1.51835
1.92292 0.440397 0.811097
2.30101 0.309562 0.509485
3.43886 0.389345 0.114011
2.16584 0.256714 1.01611
3.37529 0.374517 0.148053
3.35406 0.187237 -0.0339311
0.706052 -0.347055 2.45747
0.331752 -0.147335 0.9145
0.309873 -0.270785 1.58006
0.274727 -0.144123 0.951099
0.128999 -0.180757 1.14253
0.556827 0.0565952 1.2633
0.311765 -0.169146 0.999533
0.265335 -0.13609 0.961984
0.269597 -0.200728 1.19381
2.70366 0.0978206 2.28555
1.76087 0.268737 1.78491
1.95391 0.165794 1.99276
2.21115 0.272939 1.00311
1.62204 -0.169112 1.40428
0.377939 -0.167497 0.997652
0.40849 -0.183996 1.08294
0.309381 -0.158271 0.995004
0.800958 -0.161536 1.50848
0.257627 -0.167522 1.04473
0.43787 -0.191481 1.01054
2.94448 -0.226501 -0.236457
3.5211 -0.374236 0.111707
0.381597 -0.389157 1.41575
0.473678 -0.397212 1.48435
1.14251 0.0260253 0.876383
1.05394 0.194432 0.82824
1.74116 0.372789 1.59718
1.91534 -0.00422827 1.31342
0.311098 -0.167865 1.00149
0.438665 -0.186826 1.02407
0.284406 -0.130891 0.944916
0.338687 -0.170059 1.05491
0.161425 -0.15365 1.05283
0.126126 -0.210601 1.24402
0.175935 -0.350767 1.35848
-0.23544 -0.362488 1.39945
1.18765 -0.0150814 0.937071
1.41952 0.298774 1.26562
1.03611 -0.0423843 0.704013
0.999493 -0.0710872 0.645155
0.121622 -0.23724 1.80359
0.000179889 -0.261271 1.82287
0.980845 -0.0853406 1.95737
0.100226 -0.233515 1.85985
0.332405 -0.188832 1.05912
0.285876 -0.2758 1.58269
1.2517 0.0375571 2.0673
0.413341 -0.385939 1.39004
1.0043 -0.100166 0.636571
0.610829 -0.431006 2.64726
0.82578 0.0671019 2.04825
-0.00713943 -0.257014 1.33204
0.059869 -0.545531 1.35146
1.48118 -0.0204066 2.01523
0.851801 -0.103156 1.62217
0.371735 -0.410863 1.46984
0.285501 -0.530881 1.63529
1.61406 -0.322257 2.77769
1.768 -0.494248 1.51043
1.64159 -0.0126497 1.45248
1.8268 0.223396 1.34677
3.20582 0.230691 0.257424
3.50101 0.702328 0.141151
1.91202 0.0276919 1.86221
0.284015 -0.050934 1.89913
0.747478 -0.0804548 1.49059
1.1578 0.190664 1.91139
0.0658036 0.0934505 1.98762
0.888039 -0.00818253 2.4738
0.318057 -0.15059 1.00753
0.56417 0.0037644 1.25418
0.925732 -0.17334 1.91145
0.538615 0.00318167 1.40533
0.365425 -0.0964725 0.953476
0.164528 -0.154096 1.04906
-0.0477572 -0.205704 1.34867
0.380073 -0.376402 2.30457
1.46769 -0.371332 2.37599
0.522878 0.0956378 2.28214
0.858055 -0.666458 1.97724
0.93577 -0.603914 1.90296
0.415969 -0.171583 1.00586
0.170397 -0.154128 1.0402
0.270439 -0.2003 1.19242
0.031149 -0.435425 1.26802
0.87196 -0.714938 1.90116
0.679691 -0.48575 1.77749
0.759463 -0.425603 2.46053
0.380484 -0.159743 1.08444
0.212297 -0.178321 1.14181
0.18889 -0.166006 1.07159
0.312736 -0.167139 0.996116
0.643466 -0.0134229 1.33159
0.307189 -0.127766 0.86477
0.00226606 -0.394745 1.22589
0.383163 -0.171605 0.969571
0.333408 -0.148169 0.911651
1.02706 -0.0200278 1.85959
0.91715 0.184816 1.67738
0.963135 0.0381428 1.39166
0.441213 -0.0201334 1.04821
0.321389 -0.131589 0.891783
-0.189528 -0.352651 1.34504
0.279277 -0.128035 0.956641
0.902066 0.0141942 1.67418
0.767276 -0.0501688 1.52475
0.669863 -0.461675 1.73296
1.07007 -0.205556 1.87714
1.34475 -0.0343728 2.08973
0.507486 0.115396 2.25743
0.496924 -0.348345 2.49694
0.799217 0.052638 2.12917
0.251933 -0.0864742 1.86277
0.415859 -0.356637 1.37748
0.131376 -0.180377 1.13678
-0.0218453 -0.2504 1.34033
1.08355 0.197059 1.95263
0.437592 -0.189613 1.00787
0.438925 -0.188333 1.01975
0.250204 -0.190605 1.14998
1.38823 -0.514448 2.37487
0.469687 -0.433072 1.48118
1.64104 -1.08526 2.23173
0.342764 -0.436781 1.53966
0.356264 -0.552624 1.72748
1.02819 -0.606991 1.93781
0.95659 -0.741648 1.84836
1.35644 -0.162681 2.55572
1.15366 -0.311531 2.46831
1.63039 -0.725952 2.2954
1.30424 -0.114853 2.50558
1.01511 -0.166384 2.18394
1.43849 -0.616404 2.25576
1.23945 -0.658736 1.97406
0.513752 -0.033297 2.21063
0.510014 -0.0711732 2.17483
0.642888 0.0617461 1.99029
0.0970885 -0.220846 2.0221
0.296055 -0.474266 1.57437
-0.0178914 -0.360351 1.25032
0.304283 -0.153468 1.0043
0.775066 0.0363694 1.48937
4.78781 1.63507 11.6949
0.580936 -0.473072 1.61134
