# .PCD v0.7 - Point Cloud Data file format
VERSION 0.7
FIELDS x y z
SIZE 4 4 4
TYPE F F F
COUNT 1 1 1
WIDTH 1775
HEIGHT 1
VIEWPOINT 0 0 0 1 0 0 0
POINTS 1775
DATA ascii
-0.0512635 0.0158826 0.158615
-0.0554881 0.0247533 0.1515
-0.0902671 0.0658148 0.101205
0.0570024 0.00141495 0.218361
-0.0519391 0.0495482 0.137777
0.01678 0.0573549 0.0809893
-0.0905401 0.0646898 0.0997034
1.04709 0.303374 1.76303
2.54904 -0.213302 3.06253
0.870671 -0.110167 1.87561
0.0140156 0.0520652 0.0940879
-0.00597201 0.0710192 0.0477175
0.075212 0.0698646 0.0709078
0.0530128 -0.139832 0.950853
0.274835 -0.23771 1.22763
-0.0631586 -0.116287 0.837325
0.0684432 -0.191069 0.935078
0.0504064 0.0774923 0.0527806
-0.0921202 0.0387048 0.106143
1.80159 -0.332207 1.3659
1.8365 0.0731461 1.57383
2.43445 0.11382 2.04342
1.69316 0.327082 0.950457
2.16395 -2.01672 3.53297
0.2577 -0.342587 1.15503
1.53635 0.557157 1.6065
2.44613 -1.8424 3.02769
1.59414 -0.370125 2.71259
1.19615 -0.387669 2.24878
0.713891 0.0187005 1.63075
0.557006 -0.860216 2.1788
0.278036 -0.459587 1.15254
0.500355 0.320865 1.40847
0.540754 0.119698 1.49039
1.18759 0.575749 1.53319
-0.133305 -0.207729 1.11649
0.14388 -0.300262 1.25705
0.76988 0.0932784 1.85359
0.698961 -0.0189207 1.63082
1.61208 0.377037 1.20126
0.146887 0.0714978 0.0725181
0.0370112 0.0560711 0.101301
0.078853 0.0619064 0.265245
0.0104335 0.0629954 0.0676004
2.5338 -0.136351 1.97737
2.37708 0.316878 2.18714
1.90849 0.0161846 1.65277
2.56207 -0.421879 2.00633
2.80425 0.119798 1.89439
1.76313 0.10468 1.48993
1.90103 0.0666804 1.6129
2.34476 0.315526 1.97759
1.85787 0.0822835 1.56477
2.75505 0.121208 2.00795
-0.136104 -0.435956 1.43739
0.228319 -0.315761 1.1274
0.150452 -0.276654 1.26971
0.848157 0.355599 1.7146
-0.134911 -0.238619 1.12861
0.268514 -0.224376 1.23573
-0.103695 0.028117 0.123782
1.17578 -0.108653 1.92465
0.0493095 -0.192072 0.958522
0.256901 -0.158247 1.21566
1.07903 -0.686871 3.96034
1.60945 -0.730095 3.48305
0.625396 -0.683304 3.5015
1.50749 -0.558021 3.15384
0.723569 -0.533261 3.15575
0.368684 -0.292683 1.15263
0.537936 -0.0840848 1.35337
0.10999 -0.188696 1.04402
0.164651 -0.376417 1.01729
0.451021 -0.0332795 1.2479
0.366257 0.02551 1.26034
-0.0629358 0.0449011 0.11983
2.32143 0.325844 1.94907
1.45198 0.285597 0.900458
1.80433 -0.450416 1.1221
1.76672 0.0774122 1.47813
1.62571 0.262154 0.958106
1.80807 -0.451396 1.12034
-0.0221069 0.0396427 0.101987
-0.131444 0.0347388 0.104057
-0.00871958 0.0568748 0.0947056
0.0634072 0.0237972 0.179691
0.0906726 0.00818899 0.222608
-0.141393 0.0394395 0.10071
-0.151534 -0.00156041 0.195142
-0.0168747 0.00848223 0.363807
-0.0219991 0.039746 0.103229
-0.103984 0.0608353 0.0945092
-0.0811863 0.0726372 0.08843
-0.778901 -0.0199324 0.96714
-0.745913 -0.023335 0.912205
-0.092574 -0.00661939 0.163939
-0.0986706 0.018197 0.146308
-0.0225477 0.0481346 0.0959922
-0.0572832 0.026926 0.152503
1.69184 -0.222346 1.13117
1.72347 -0.280365 1.15298
2.5175 -0.849285 1.69866
1.78654 -0.285452 1.35416
2.52864 -0.853179 1.70021
2.20364 -0.178887 0.984934
-0.139969 -0.0826315 0.749754
0.0500364 0.0662503 0.0721717
1.68517 -0.0983673 1.29685
1.48302 0.251571 0.925196
1.81243 -0.331799 1.36291
1.63589 0.283046 1.03685
0.0290843 0.0711029 0.0565252
-0.134174 0.0363641 0.137709
-0.104063 0.0126042 0.146257
-0.051051 0.0679527 0.0444728
-0.135285 0.0369115 0.107611
2.46629 -0.373168 1.88033
2.87992 -0.475375 1.56224
2.16437 -0.336624 1.35898
2.27363 -0.31826 1.30319
2.24241 -0.395246 1.32641
1.74644 -0.350879 1.17524
1.69866 -0.230083 1.25235
0.240953 0.00543158 0.366377
1.67593 -1.5191 3.22171
2.803 -1.2306 2.72662
2.03119 -1.51402 3.23262
1.94276 -1.52301 3.22799
0.541848 -0.346754 1.28495
0.0173444 0.0576015 0.0809148
-0.0222615 0.0460232 0.10065
0.0856045 0.0119463 0.203182
-0.0798178 0.053834 0.114339
1.73349 -0.374155 1.10355
1.47015 -0.239696 0.898321
1.77791 -0.426976 1.10668
1.70748 -0.411297 0.99315
1.77686 -0.427443 1.10718
1.71817 -0.41007 0.986366
-1.16357 -0.324611 0.829179
-0.015123 0.0443207 0.106158
0.0274813 0.055301 0.0888193
-0.00338448 0.0607468 0.0708387
0.624417 0.0163231 1.54609
0.559413 0.322873 1.48119
1.31071 0.0187027 2.49535
1.55595 0.674976 1.37667
1.36567 -0.272759 1.02045
1.18888 -0.11509 1.94775
0.119461 0.0473336 0.343538
0.00183331 0.0689601 0.0596378
2.46741 -0.283067 2.22027
2.56938 -0.796633 1.74615
2.72428 0.388763 1.78065
4.4292 -0.236446 -0.63542
3.13491 -0.630194 1.35236
2.51099 -0.618707 1.91958
-0.0270273 0.067228 0.0504636
-0.0635529 0.030734 0.137308
0.00332213 0.0566011 0.0812702
-0.510164 -0.473682 1.15105
0.0357507 0.0574677 0.100673
-0.44324 -0.482873 1.29666
0.0355761 0.0575988 0.100188
0.02747 0.0552219 0.0883347
0.410741 -1.01226 2.28824
0.900929 -0.25208 1.89553
1.50004 -1.06871 2.79412
-0.0801094 0.0299484 0.13093
0.892494 -0.592066 3.33738
0.512423 -0.243713 2.94277
0.784981 -0.509896 3.25185
0.919495 -0.916727 2.39148
1.64753 -0.326353 1.01754
1.72401 -0.276908 1.15109
1.74657 -0.252172 1.20273
1.65626 0.182107 0.98534
1.79449 -0.325322 1.30642
2.95779 -0.243012 1.41723
1.69626 -0.311007 1.09884
1.44949 0.215126 1.87518
1.33139 0.162038 1.91579
0.653993 -0.509403 1.7447
-0.126316 0.0477999 0.0917428
-0.0584773 0.0609707 0.058226
0.260684 -0.971299 2.19232
2.07715 -1.06719 3.42807
0.0873096 0.0737916 0.292906
0.499143 -0.423435 1.47312
1.42062 -0.223639 2.55059
1.06805 -0.11475 2.15522
0.759217 -1.19738 2.73282
0.134791 -0.378368 1.0011
-0.102294 0.0126788 0.142961
0.0527025 0.0650847 0.072468
0.0708436 0.0638698 0.0821986
0.141328 0.00743893 0.33818
-0.370617 -0.807916 1.37154
0.111132 -0.0269649 0.386601
-0.0680557 -0.769215 1.94479
1.21287 -0.334808 2.29737
2.40168 0.0136982 2.25878
-0.10147 0.0535564 0.0914761
-0.074218 0.014747 0.251429
0.394607 0.0479786 0.395084
0.0759653 0.0092334 0.205537
0.0231897 0.0676373 0.0728106
0.0318822 0.0632583 0.0732331
0.0934054 0.0122364 0.20102
-0.0618363 0.014617 0.149833
0.0510772 0.018583 0.179023
0.841541 -0.191388 1.84489
-0.056868 0.0134264 0.190467
1.84702 0.0521694 1.58532
1.75127 0.100642 1.46914
0.194578 0.0524714 0.124725
-0.0514668 -0.104613 0.786064
0.155045 0.0348603 0.163912
0.0769079 -0.00240985 0.294011
-0.0704915 0.0170286 0.266648
0.2969 -0.0223568 0.407443
-0.0526947 0.0156218 0.165928
-0.0652256 0.00832199 0.164468
2.71374 0.155854 2.00717
2.5176 -0.573979 1.77442
2.00015 -1.08187 3.49423
1.45552 -0.05026 1.81403
-0.120189 -0.0464735 0.723493
0.266888 -0.290155 1.19534
-0.853993 -0.448446 0.790829
-0.505463 -0.662163 1.1482
-1.00431 -0.435372 0.755683
0.985144 0.161856 1.3058
0.187988 0.220214 1.5739
1.31484 0.308492 1.68638
0.539835 -0.0755604 1.35768
-1.03698 -0.402424 0.734608
0.272757 -0.446186 1.16046
-0.482552 -0.542504 1.1622
-0.583913 -0.561934 1.05912
1.8074 -1.73886 3.25836
-0.524961 -0.478306 1.07587
-0.0652647 -0.0340775 0.716268
0.0575108 -0.320004 0.866035
0.0780735 -0.369089 1.05156
-0.0936482 -0.0144277 0.640311
0.652761 -1.32102 2.76502
1.53699 -0.461179 2.66328
0.163437 -0.097256 1.08217
0.699234 -0.380383 3.19078
1.45079 -0.401933 3.0889
0.906924 -0.903443 2.36031
2.24399 -1.11782 3.27344
1.66508 -0.608061 3.35549
1.98282 -0.94836 3.53428
2.63814 -0.822268 3.0607
0.321822 -0.252187 1.08625
0.54998 -0.19218 0.902085
0.132379 -0.184836 0.909704
-0.416558 -0.52148 1.17625
0.0102327 -0.515758 1.08509
0.0775552 -0.102024 0.984122
-0.0367315 0.015451 0.248559
0.0439895 0.0383426 0.131125
0.114709 0.0540448 0.105504
0.0732367 0.017203 0.204444
0.095029 0.0339366 0.162107
1.264 -0.897276 3.29185
0.442419 -0.890273 2.14288
-0.0909541 0.015755 0.145236
-0.0543413 0.0150805 0.203961
0.0960183 0.0796573 0.286693
0.169097 0.0582766 0.109116
0.0404241 0.00201507 0.302997
-0.120608 0.0436799 0.112605
-0.0627262 0.0196626 0.142349
-0.0750633 0.031686 0.132185
0.0568807 -0.139463 0.829223
-0.0889908 -0.100027 0.497063
0.226553 -1.04639 2.11619
1.77039 -0.330208 1.33146
1.09924 -1.49294 2.99004
3.03374 -0.978115 1.75454
1.63205 -0.777313 3.644
0.711907 -0.0227604 1.65774
-0.0270315 -0.282192 0.778093
-0.334834 -0.682043 1.31383
-0.0293341 -0.287776 0.792681
-0.224658 -0.20012 0.84773
-0.00425126 -0.541215 1.02756
0.00572182 0.0551916 0.084117
0.00561898 0.0553007 0.084764
0.0665784 -0.21641 0.938301
1.63718 -1.13662 2.66592
1.2703 -0.338342 2.32056
-0.100594 0.0109154 0.144374
0.000482486 0.058149 0.0773688
-0.0970593 0.00346206 0.145509
2.82877 -0.764383 1.40919
1.57409 -0.241665 0.911651
1.59503 0.13466 1.2602
2.07954 0.778725 -0.413998
2.01971 0.821744 -0.339235
1.69509 -0.30385 1.07295
1.70669 -0.349121 1.05204
1.75639 -0.385868 0.98692
1.87156 0.517755 0.968493
2.63939 -0.826823 1.54124
-0.0212784 0.0470795 0.0960633
0.351542 -0.570088 2.21887
0.493634 -0.67944 1.81435
0.617263 -0.448901 1.47572
0.427167 -0.375576 1.36217
0.494757 -0.677604 1.81548
0.419088 -0.872381 2.12446
2.16713 -0.789889 3.595
1.54551 -1.16436 2.759
0.0497514 0.0770522 0.0506601
-0.0400086 0.0641232 0.0552734
-0.103702 0.00959355 0.146267
0.0132601 0.0517144 0.0932931
0.014945 0.0391245 0.125153
0.0681083 0.0665935 0.0724712
0.0760244 0.0883835 0.0342198
0.0766081 0.0886761 0.0353848
3.34915 0.547004 -2.79931
1.69683 -0.2219 1.17183
1.83635 0.051381 1.56498
1.73164 -0.222007 1.18697
0.501975 0.254467 1.52616
0.976703 0.164702 1.30176
0.0760907 -0.337739 0.917965
0.26014 -0.15415 1.20813
0.0619496 -0.369606 1.02682
0.0299753 0.0196703 0.178987
0.0139822 0.0520296 0.0939385
-0.0744389 0.0308547 0.137099
-0.510332 -0.608414 1.10198
-0.238166 -0.0603907 0.750426
2 -1.09216 3.48232
0.955549 -0.125953 2.94175
1.32837 -1.32959 2.70605
1.69508 -0.712532 3.82619
1.24054 -0.371193 2.35374
1.19845 -1.23772 2.88716
0.0642521 0.0154639 0.186084
0.149092 0.0374798 0.160507
0.0756493 0.0808914 0.0434587
0.150372 0.0548336 0.124199
0.0421534 0.0754577 0.0481668
-0.00856839 0.0719731 0.0437289
0.0419038 0.0491678 0.106249
0.197558 0.0456318 0.15966
0.172875 0.0443455 0.13517
0.0445532 0.0671542 0.0680152
-0.0591836 0.030647 0.143832
-0.773152 -0.0192893 0.968255
0.119491 -0.0479898 0.402655
0.130473 0.0476403 0.140168
0.0497947 0.0843354 0.0301558
0.132195 0.0475917 0.140862
0.224877 0.116607 0.198826
0.0220717 0.0671892 0.0716329
0.0180751 0.057819 0.0817058
0.0232332 0.0460044 0.108781
-0.0677541 0.0273423 0.136957
0.176553 0.0496549 0.32193
-0.0536243 -0.11412 0.805877
0.123861 -0.00509107 0.33397
-0.116411 -0.227986 1.07617
-0.0870063 -0.208687 0.657334
1.19186 0.196048 2.03478
0.0501215 -0.497233 1.04244
0.0512626 -0.194565 0.9545
1.75624 -0.253144 1.28476
0.6176 0.395046 1.31842
1.67469 0.124709 1.34826
1.60118 -0.0730609 1.84132
0.709733 -0.0221483 1.64703
0.821711 0.341012 1.63864
0.738326 0.339109 1.50423
1.792 -0.326379 1.34785
0.506859 -0.44741 1.51524
0.0632528 0.00313016 0.215147
-0.174941 -0.719419 1.50642
0.0585101 0.081256 0.0485893
-0.0120816 0.0736438 0.0396479
0.0404532 -0.599726 1.98598
0.578177 -0.528875 2.00314
0.588269 -1.02004 3.28416
0.948017 -0.165272 1.94629
0.65426 -0.314259 3.0939
-0.0666472 0.0399564 0.125969
-0.132047 -0.128841 0.7328
-0.0149865 0.077198 0.0463219
-0.00622524 0.0722501 0.0511059
0.0962923 0.0801527 0.0607965
1.02554 -0.9268 3.102
-0.0627578 0.0381567 0.133204
2.17404 -1.02791 3.36692
2.5979 -0.510022 3.1132
0.00807474 0.0539585 0.088742
0.0887317 0.0662305 0.0760462
-0.0489428 0.0276768 0.148169
0.0960617 0.0790384 0.0595888
0.0184803 0.0656813 0.0788511
-0.0488331 0.014505 0.163006
0.0900329 0.0191742 0.183928
2.69418 -0.577339 1.70343
2.0791 -0.295141 1.34244
-0.138523 -0.297687 0.872367
-0.447113 -0.525946 1.22562
0.036583 0.0649578 0.0702615
2.47191 -0.838457 1.74557
2.95944 -1.05952 2.65024
2.71506 0.0976495 2.5015
2.84769 -0.651404 1.44354
2.50755 -0.947518 1.87181
-0.137042 -0.154882 0.687582
-0.00870234 0.0558124 0.0947917
-0.0468109 -0.0936744 0.761401
-0.563587 -0.512292 1.17003
-0.512052 -0.475413 1.15683
0.0706266 0.0248477 0.182293
-0.0411504 0.0180069 0.258532
-0.612279 -0.4086 1.07934
-0.00788224 0.047084 0.100708
0.0711028 -0.327055 0.886869
0.243528 -0.0437226 1.40407
0.187857 0.218619 1.57093
0.181783 0.332171 1.69183
0.414953 -0.0813885 1.16084
0.510465 0.288105 1.49639
0.0832422 -0.117685 0.979478
0.0793492 -0.0987674 0.981777
2.99835 -1.50999 2.43405
0.82814 -0.947445 3.55302
1.71992 -0.612607 3.36627
1.43487 -0.76642 3.41944
1.45625 -0.398309 3.10193
0.0232932 0.0459371 0.109178
0.00834225 0.0539926 0.0881765
-0.607255 -0.544766 1.0238
1.38572 -1.74352 3.08318
-0.00251768 0.0550809 0.0834519
-0.0118204 0.0521709 0.0887164
-0.0691179 0.00829179 0.168484
-0.166147 -0.124457 0.767196
0.0710029 0.0749526 0.0550389
0.0611293 0.0735735 0.065803
1.74529 -0.465446 1.16717
2.34634 0.194887 2.03558
2.60199 0.0340272 2.00563
0.00968343 0.0751185 0.0450138
0.00597136 0.0732395 0.0464851
-0.0135544 0.0740766 0.0368581
0.035275 0.064658 0.0712541
0.228126 -0.346335 1.26467
0.708779 -0.172785 1.56104
0.0495291 0.077405 0.0507354
-0.00731649 0.0640785 0.0623364
1.72415 -0.256199 1.26037
0.0115464 -0.56889 1.00633
-0.168603 -0.765152 1.45918
1.43889 -1.3858 2.61082
-1.1353 -0.276513 1.19906
2.41739 -0.791071 3.25577
0.0656293 -0.137157 0.967917
-0.00451705 -0.55086 1.03557
-0.0448158 -0.108001 0.759913
0.0609356 -0.254125 0.911029
0.874973 -0.177616 1.84622
-0.641946 0.0174292 1.10566
0.123664 -0.00663559 0.329044
0.170616 0.0267845 0.371904
0.0969752 0.0173613 0.325305
-0.14069 -0.0811898 0.740686
2.24787 -0.838552 3.38234
2.5331 -0.277835 3.03035
2.7092 -0.223446 3.43382
2.29885 -0.245023 3.07436
1.37494 -0.459451 2.4172
1.52417 0.547089 1.59882
2.04567 -1.0051 3.4819
2.17296 -1.26158 3.25036
2.37269 -1.38351 3.10243
1.81167 -0.33221 1.36404
1.91632 -0.350415 1.51364
1.85192 -0.308081 1.44183
1.88694 -0.512048 1.0368
1.76466 -0.312871 1.31428
2.18244 -0.16721 0.90627
2.21874 -0.319521 1.29033
-0.0947161 0.0606225 0.107467
0.0355122 0.0650525 0.070046
-0.0760785 0.0168701 0.146744
0.0485614 0.0673089 0.0686898
0.0481125 0.0670087 0.0678267
0.00327179 0.056664 0.0815401
-0.0105554 0.0362165 0.123786
-0.0491981 0.028555 0.158764
-0.707846 -0.701966 1.53591
0.644511 -0.0966836 1.54495
2.71768 -0.699963 3.06194
1.95339 -1.29867 2.96691
-0.614988 -0.467099 1.01638
0.0611371 -0.386411 1.29855
0.23227 -0.194165 1.18821
2.74521 -0.707617 1.66265
2.62484 -0.151309 0.707025
2.41257 0.165578 2.04518
0.27168 -0.289504 1.22537
-0.0952524 0.026416 0.123328
-0.0154799 0.0533421 0.0846898
-0.0529275 0.0257003 0.144719
-0.0875511 -0.247749 0.708099
-0.136465 -0.0744221 0.727843
1.8153 -1.61901 2.94121
2.47071 -1.90682 3.12803
1.2136 -1.53137 2.77073
0.0364527 -0.0899056 0.939601
0.295705 -0.73318 1.94582
0.138873 -0.919926 1.92102
0.593905 -0.901728 3.35026
0.626431 -0.399567 1.4209
0.446818 -0.375929 1.39569
-0.032992 0.0371851 0.207284
-0.0843701 0.0634783 0.099868
0.156159 -0.10006 1.08316
0.721841 -0.0442463 1.60652
2.61135 -1.03362 2.27677
0.165021 -0.37903 1.01636
0.0334879 -0.225414 1.1468
0.952522 0.178959 1.29164
0.695667 0.262779 1.62695
0.00933673 -0.575829 1.01973
-0.537121 -0.66414 1.10191
1.37911 -1.74672 3.06794
-0.0698166 0.0531518 0.104704
-0.121518 0.0538024 0.102987
-0.121064 0.0536155 0.102192
-0.171278 -0.251939 0.641016
0.193995 0.0731958 0.389222
2.6911 -0.858622 4.02762
-0.772451 -0.457362 0.909696
-0.235794 -0.327454 0.890453
0.0356782 0.0567844 0.100453
-0.0603114 -0.195404 0.833496
1.67774 0.156119 1.40065
0.030001 0.0619738 0.0769877
-0.011518 0.0516615 0.0901261
-0.0524466 0.0103125 0.155207
-0.0597437 0.0107618 0.157787
-0.120408 0.0529097 0.102685
0.0492952 0.0770465 0.0503802
0.0213434 0.0666663 0.0699228
-0.00542668 0.0810172 0.0269423
2.77276 -0.254961 2.66619
3.78645 -0.616735 2.57541
3.13453 -0.0588653 3.17413
3.88496 -0.352929 3.15702
1.97939 -0.869019 3.76937
-0.147843 -0.520743 2.02205
0.295764 -0.930594 2.1364
0.663077 -0.444921 1.47426
0.620002 -0.402858 1.42915
1.30562 -0.454829 2.38336
0.0276478 0.0433678 0.115452
0.584386 -0.803188 2.03584
0.586444 -0.914027 2.23165
1.1891 -0.462798 2.62895
0.832943 -0.966464 3.68435
-0.00264778 0.055057 0.0836814
-0.0689153 0.00814308 0.168949
0.0252721 0.0552602 0.0874063
-0.797359 -0.414868 0.953614
0.0182575 0.0578339 0.0819645
0.0235347 0.0569655 0.0846381
-0.134599 0.0384165 0.467395
0.16521 -0.379876 1.01836
-0.171095 -0.0799038 0.758286
-0.0243101 -0.283003 0.793228
0.176898 0.0513152 0.325662
1.48452 -0.251882 0.926423
1.78389 -0.206883 1.1845
1.60468 -0.191508 1.04414
1.67708 -0.308446 1.06835
1.70746 -0.404361 1.05102
1.69514 -0.406666 1.05822
1.79225 -0.426509 1.10075
1.48556 -0.220106 0.941677
0.0183866 0.0550407 0.0887767
0.00164125 0.0574878 0.0791327
0.0106239 0.0467383 0.117963
-0.623749 -0.558345 1.04661
0.0017276 0.057464 0.0790574
0.211372 -0.418372 1.0558
-0.0405865 0.0416556 0.162941
0.318393 0.10189 0.410609
-0.0142559 0.0531097 0.0852772
-0.0830467 0.00231676 0.154947
-0.0449758 0.0297403 0.145673
-0.0116024 0.0445849 0.104487
-0.0312478 0.0507825 0.0863858
0.0243002 0.0722458 0.0523728
0.0960525 0.0421612 0.134309
-0.406174 -0.565056 1.25279
-0.570937 0.0166899 1.02775
-0.399198 -0.150762 0.878461
-0.0855844 -0.273561 0.695683
-0.714827 -0.371284 1.47145
0.0476612 -0.204143 1.0381
0.0816065 0.00176204 0.305524
0.362303 -0.201599 1.28279
-0.587417 0.0191137 1.05708
-0.354324 -0.785084 1.32832
0.16875 0.0267191 0.338739
-0.0947906 0.0391652 0.1079
-0.0877949 0.0468948 0.111598
0.0775852 0.0893136 0.0378789
0.0588984 0.0820118 0.0497606
0.0837063 0.0907719 0.0358093
2.51341 -0.611131 1.9122
4.62932 -0.445583 0.310154
4.58589 0.799523 0.633714
0.0321189 0.0665039 0.0645037
0.056481 0.0688273 0.0651591
2.2416 0.302185 2.24142
2.35143 0.28833 1.96628
2.50387 0.221417 2.42047
2.49292 0.218445 2.41389
2.37226 0.176157 2.06612
-0.0129148 0.0526588 0.0891271
-0.0210185 0.0648349 0.0590788
-0.0455124 0.0589256 0.0584695
-0.0196629 0.0668384 0.054832
0.0482842 0.0671272 0.068275
-0.0237451 0.05443 0.0815844
-0.0101334 0.0363641 0.124813
0.262169 -0.24382 1.20919
0.0222996 -0.547416 1.04533
0.33157 -0.31308 1.31486
-0.00338088 0.0558126 0.0841433
2.747 0.0947498 1.89664
2.52339 -0.72796 1.69589
3.69485 -0.38095 1.05484
3.13472 -0.229662 2.69189
2.71933 0.396224 1.74231
0.538902 0.375344 1.39245
0.411608 -1.00884 2.2612
2.02232 0.209104 2.54424
2.63696 -1.09786 2.9702
0.371867 -0.222414 1.1557
0.0387878 -0.0894992 0.937427
2.4141 0.217788 2.12186
1.57024 0.0420406 1.14211
2.40005 0.200433 2.02139
0.222357 -0.410256 1.10268
-0.0599829 0.0322012 0.133724
0.199815 -0.244426 1.13435
3.62157 -0.410058 0.719906
0.0100155 0.0744995 0.0438078
-0.0411937 0.0641847 0.0547593
0.00521807 0.063302 0.0660628
-0.0267208 -0.521622 1.28535
0.988089 -0.1374 2.93125
0.935031 -0.950848 2.38334
1.18965 -0.238746 2.97795
0.765348 -0.877176 3.68358
0.450859 -0.651531 2.28761
0.631336 -0.472321 3.03338
0.779043 -0.494307 3.2475
1.67546 -0.333572 1.05155
1.62096 -0.318157 0.894244
1.8007 -0.453357 1.12302
1.63458 -0.239917 1.04633
1.6439 -0.210813 1.14936
2.42324 -0.185255 2.01506
2.34738 0.263166 2.01887
-0.00110121 -0.51093 1.05167
0.110005 -0.0263526 0.389433
-0.0751743 -0.21504 0.819837
-0.252366 -0.207369 0.917499
0.0100737 -0.123919 0.836175
0.0754733 -0.919441 1.93042
0.467092 -0.396804 1.44449
2.62172 0.546721 -1.30289
2.25371 1.0977 -1.55189
1.62672 0.145247 1.30967
2.08866 1.01115 -0.610976
2.34567 0.621504 -0.663511
0.220745 -0.34308 1.37265
0.624388 -0.131224 1.45995
-0.509268 0.0349532 0.979345
0.154276 -0.146368 1.07688
-0.0572148 0.0141039 0.172162
1.00501 0.296515 1.77136
0.152512 -0.145134 1.07694
4.87467 1.09396 0.190045
4.99173 0.380633 -0.121674
2.48332 -0.816971 1.81484
2.92504 -1.0407 2.68239
0.064734 0.0230086 0.185777
0.0486059 0.0452 0.115085
0.013792 0.0519285 0.0936217
0.0437613 0.0384035 0.130175
0.0730515 0.0356196 0.126187
0.028239 0.0540398 0.0915222
-0.0564625 0.0448075 0.132458
-0.0781267 0.0204364 0.277953
-0.638994 -0.4378 0.973176
-0.0568664 -0.202754 0.837182
0.49679 -0.444185 1.5023
0.061865 -0.264118 0.938524
0.0532019 0.0409085 0.129042
0.000253078 0.0582349 0.076875
0.00151574 0.0422718 0.113501
0.00315423 0.0565686 0.0810581
0.0486127 0.0447874 0.116361
-0.0741827 0.00283508 0.155635
-0.120352 -0.0669673 0.728165
-0.0816272 0.0267068 0.137696
0.323285 -0.627646 3.22867
1.3534 -0.480377 2.84276
0.3117 -0.624907 3.25462
1.27511 -0.61974 3.47624
1.13811 -0.366401 3.52653
1.94099 -0.510428 3.60511
0.601879 -1.4927 2.60201
0.0285892 0.0610337 0.0875413
0.165397 -0.380793 1.01702
0.0786732 -0.161396 0.984652
0.033727 -0.296117 1.28512
0.672086 -0.442691 1.66337
0.647417 -0.000809402 1.5051
0.137291 -0.803606 2.24708
1.92613 -0.499065 0.989888
2.87126 -0.0258046 2.5188
0.57779 -0.463395 2.97676
0.615074 -0.397557 3.00463
1.52821 -0.46312 2.66773
2.30278 -1.17142 3.27529
-0.055401 -0.113088 0.795691
0.0638817 0.0228488 0.184099
-0.0137723 -0.236283 0.849216
-0.0140651 0.0750685 0.0376966
0.0432319 0.059526 0.0959611
0.0564569 0.0627332 0.078994
-0.00460811 0.0632451 0.064833
0.0287793 0.0636925 0.0738554
-0.0136496 0.0577066 0.0874134
0.0377875 0.0619647 0.0765554
0.0163302 0.0324312 0.13798
3.98611 0.474852 0.883997
0.163025 -0.371072 1.20089
0.782813 -1.61434 2.86804
1.08529 0.289588 1.81625
0.975505 -0.22844 1.97715
1.68102 0.517632 1.55082
1.31591 0.0204931 2.50413
0.364947 -0.294241 1.16763
1.50307 -0.0381278 1.76586
-1.14372 -0.257278 1.1357
0.546374 -0.508969 2.9367
0.401442 -0.774482 3.24512
-0.114324 -0.122175 0.739373
-0.0971593 -0.0837236 0.779808
-0.356632 -0.578208 1.32474
1.58922 -1.34862 3.01196
-0.086426 0.0236119 0.14196
-0.123678 -0.706491 1.47382
0.891021 0.197184 1.18224
1.19699 0.151192 2.02927
0.399095 0.0377595 1.28387
0.49142 -0.745142 2.29626
2.53328 -0.726279 1.69756
3.00079 -0.725697 1.29143
2.15838 -0.288803 1.32849
0.679486 0.182599 1.75086
0.203009 -0.244829 1.16777
0.299852 -0.733158 1.94358
0.985234 -0.0167307 2.0453
1.68889 -0.311259 1.10097
1.60697 -0.293606 0.974681
3.55388 0.418596 -2.42652
1.48317 0.248626 0.925782
1.67601 -0.235203 1.11028
0.0704891 0.0246388 0.180752
0.145015 0.00906616 0.343469
0.0675318 -0.402341 1.15667
0.322295 -0.271091 1.21727
3.75021 -0.468263 0.83445
3.30199 -0.258169 0.0245753
2.70079 -0.71122 1.68845
1.96465 -0.356814 1.40042
-0.076699 0.00352084 0.142122
0.00164075 0.0536896 0.0931101
0.0516569 0.00154612 0.212846
-0.0816372 0.0421927 0.111415
1.65979 -0.280987 1.09217
1.76463 -0.437047 1.35034
1.54778 -0.16364 1.07363
1.93262 0.29622 0.602909
1.44393 0.292766 0.917411
-0.0547051 0.0150363 0.168821
0.0268534 0.0503512 0.100608
0.561016 -0.0460302 1.49612
-0.0557385 0.0151112 0.151674
-0.014374 0.0532815 0.0853566
-0.000940405 0.0590061 0.0748331
0.00168522 0.0575333 0.0790511
0.0561219 -0.0080048 0.245269
-0.407226 -0.588887 1.25346
-0.555358 -0.519252 1.05041
-0.642364 -0.522871 1.04232
-0.486121 -0.629824 1.18601
-0.0761311 0.0316346 0.133049
0.00189102 0.0424589 0.113407
0.0350887 0.0569113 0.0993072
0.0138904 0.0520097 0.0936495
0.543513 -0.346257 1.28167
0.151801 -0.387168 1.23678
0.152205 -0.387877 1.23584
2.79434 -0.301162 1.71077
2.57173 -0.373479 1.89114
1.94499 0.00756996 1.70174
-0.239328 -0.0590578 0.747553
2.97052 -0.722465 1.28975
-0.0749545 0.0329285 0.132318
0.0435863 0.0386714 0.12899
0.0256184 0.0553669 0.0883351
2.37043 -0.685699 3.49582
-0.398472 -0.709028 1.31832
1.90564 -0.892048 3.79693
1.61694 -0.835537 3.44196
2.28845 -1.17422 3.2683
0.950853 -0.229452 1.93632
1.04082 -1.75164 3.19777
1.98824 -1.68948 3.11952
2.18226 -1.17043 3.39182
0.681546 -1.00367 2.28973
-0.468735 -0.142058 0.945282
-0.014392 -0.273578 0.959436
-0.466046 -0.140554 0.941719
-0.360403 -0.584724 1.34073
-0.628379 -0.017527 0.949409
-0.877529 -0.100364 1.21868
-0.532533 -0.555279 1.19503
0.508541 -0.376045 1.40732
0.812752 -0.207181 2.08371
1.58641 -1.14948 2.72991
0.891308 -1.45242 2.80929
-0.253322 -0.0735709 0.76049
0.778525 -1.60331 2.8585
0.0164025 0.0581243 0.0810062
0.0851113 0.0117227 0.204265
0.038911 0.0448271 0.114642
0.026804 0.0503325 0.10058
-0.00315049 0.0519564 0.100153
-0.0714074 0.0154069 0.137898
-0.0778596 0.0253119 0.14292
-0.324493 -0.62579 1.32683
-0.39435 -0.52603 1.25694
0.035402 0.0569251 0.0998223
-0.0845538 0.0255504 0.139844
1.15419 -1.07175 3.39404
0.670437 0.0703005 1.52479
0.474636 -0.120612 1.29819
0.909256 -0.759405 3.63403
0.7091 -0.856238 2.08508
0.545197 -0.143761 2.99473
0.456243 -0.278201 2.89083
0.558861 -0.454452 1.6045
1.38653 -0.212948 2.53013
0.452911 -0.496117 1.68895
0.539366 -0.378143 1.36662
1.06627 -1.55029 3.00454
1.10359 -0.157139 2.91723
0.152996 -0.420505 2.66471
0.20854 -0.442958 2.55897
2.53053 -0.167106 2.15674
2.38405 -0.189289 2.99979
4.63342 0.00252481 2.87196
0.139893 -0.304444 1.27487
0.860616 0.10585 1.83147
0.93309 -0.292374 2.18275
1.10387 0.0865832 2.30962
0.148667 0.0993357 1.54532
0.538009 -0.0746834 1.3615
0.261402 -0.200039 1.21329
1.75128 -0.260012 1.31863
1.90055 -0.328159 1.47614
0.500099 -0.405698 1.47849
0.659596 -0.509603 3.08082
0.922904 -1.26535 2.88271
0.581327 -0.569912 3.46391
0.971754 -1.47893 3.36798
2.16672 -0.30942 2.97454
0.487806 -0.415292 1.4433
0.984135 -0.0884767 1.98758
0.617043 -0.418818 1.48638
0.224317 -0.474951 1.70005
1.4267 -0.292847 2.5145
0.295626 -0.941267 2.13408
2.7627 -1.30219 2.78366
2.85167 -0.597169 3.49344
4.04178 -0.0835456 3.34821
2.61513 -0.81901 3.0772
3.17171 -0.425552 4.04951
0.262633 -0.335662 1.16642
0.4389 -0.347687 1.29354
0.9047 -0.482798 3.39534
1.06389 -0.680198 3.88478
0.786924 -0.384691 3.26355
1.1809 -0.360356 3.62052
0.902281 -0.483275 3.36335
0.595154 -0.0460229 3.09695
0.846553 -0.974236 2.32447
1.25686 -0.239263 3.03799
0.278588 -0.465595 2.82776
0.788209 -0.95093 2.25962
1.43469 -0.0727029 1.94626
0.549779 -0.305767 1.38323
0.938211 -1.31988 2.83821
2.17058 -1.25278 3.2603
1.70795 -1.52701 2.89194
-0.216791 -0.716356 1.94201
0.665428 -0.436338 1.50509
0.550988 -0.300793 1.38816
0.54978 -0.300778 1.39117
0.723045 -0.81332 2.13241
1.98881 -0.902242 3.57129
0.895497 -0.906354 2.36273
1.683 -0.277765 1.0908
1.56412 -0.163736 1.03543
3.08694 -0.666894 1.18912
0.02287 -0.283256 1.3125
0.150002 -0.38757 1.24335
0.632152 0.0509292 1.51582
0.985491 0.141634 1.80856
0.463468 -0.264348 1.28058
0.042719 0.00405334 1.53335
1.71558 -0.738251 3.60129
2.25703 -1.35777 2.98521
3.0641 -0.776432 3.9408
-0.143655 -0.698867 1.51974
-0.137804 -0.693834 1.51412
0.936115 -0.239705 1.86589
0.696575 -1.13892 2.608
2.1852 -1.44787 3.17113
0.4523 -0.0418237 1.23331
0.0545354 -0.302775 1.32269
0.239074 -0.244796 1.16459
1.44802 -0.144839 2.04589
0.650836 -0.101621 1.59716
1.36383 -0.203103 2.18824
1.12789 -0.264258 2.16834
0.926338 -0.00892504 1.98619
1.72721 -1.20275 3.47559
1.04558 -0.343944 3.73704
1.94967 -0.506059 3.64316
3.24041 -0.680428 2.63216
2.44485 -0.52271 1.97394
2.76019 0.103557 1.89778
2.78157 0.298898 1.75279
2.74368 -0.71548 1.69241
5.00287 0.335521 0.554102
0.053154 -0.764377 2.0468
0.98682 -0.0222414 2.04274
0.0661185 -0.878867 1.8186
0.631457 -0.386337 1.39066
0.49521 -0.638591 2.27386
0.439729 -1.40298 2.78396
1.50936 0.214584 0.902714
2.72 -0.58064 1.71582
2.10935 0.146304 0.881898
4.17081 -0.4101 1.07305
0.139492 0.0954705 1.55261
0.212995 -0.424126 1.06767
0.196571 -0.443383 1.59563
0.0350964 -0.306514 1.35002
0.566959 0.033997 1.51669
0.22688 -0.423447 1.52683
1.0472 -1.25273 2.81626
0.775396 -0.808128 2.12872
0.0988373 -0.467522 2.64801
0.961931 -0.268344 2.92765
0.909222 -0.906651 2.36184
1.12389 -1.62416 3.36163
0.329681 -0.489013 2.87964
0.215823 -0.464477 2.59433
0.457615 -0.730751 2.25822
0.630919 -0.745206 1.99791
1.29608 -0.327251 2.35781
0.610859 -0.124436 1.37513
-0.193806 -0.746322 1.51879
0.0598975 -0.327255 1.33112
0.0834478 0.151828 1.22051
0.639089 -0.0119469 1.60367
0.3018 -0.731742 1.94061
0.932176 -0.00922876 1.99791
0.98969 0.171561 1.30125
-0.125129 -0.768176 1.45593
0.235361 -0.193559 1.18888
0.201187 0.341795 1.7743
0.693593 0.25954 1.63227
0.387607 -0.0778382 1.21504
0.363234 0.0311429 1.27012
0.162401 -0.099455 1.07686
0.0662078 -0.410344 1.30457
0.672513 0.0654136 1.50304
2.82929 -0.364729 1.5872
2.4201 0.298248 1.95521
2.16183 -0.97268 3.38867
1.77302 -0.772854 3.62796
1.31178 -0.791984 3.42839
2.18302 -0.954027 3.38312
0.790741 -0.507057 3.26534
1.86756 -0.65408 3.5635
0.174751 -0.37331 2.74564
2.22277 -0.323749 1.35564
2.66812 -0.159303 1.7649
2.54631 -0.189991 0.695811
2.50449 -0.826533 1.81816
1.69829 -0.343621 1.04292
1.69856 -0.31277 1.09808
1.35528 -0.685957 3.58977
1.7565 -0.769528 3.59509
3.13863 0.577623 1.39723
2.89511 0.464938 1.48212
2.648 -0.928949 2.15568
2.44566 -0.838309 1.88504
4.15043 -0.507827 0.669402
2.47321 -0.47122 1.84448
2.41876 -0.0249019 2.20381
2.5905 -1.06298 2.18774
0.7276 -0.535342 3.16166
0.966403 -0.981765 2.4225
0.415893 -0.363085 1.37188
-0.177071 -0.734125 1.48638
0.201542 -0.312421 1.1188
0.0471852 -0.305026 1.33594
0.229857 -0.240516 1.17125
0.658977 -0.0565146 1.55374
0.649183 -0.317446 3.14035
1.5338 -0.46173 2.67877
1.33464 -0.404954 2.38479
0.462087 -0.246483 2.92633
1.32544 -1.47135 2.79937
0.880054 -1.59043 3.26131
0.98361 -0.943375 2.48518
1.16003 -0.319487 2.1834
0.547309 -0.866067 2.20095
0.781554 -0.789398 3.22781
1.04483 -1.0253 2.54381
1.27295 -0.45496 2.62985
0.983342 -0.0857114 1.99088
1.33184 0.162093 1.91272
1.6239 -0.571486 2.77205
0.985249 -0.0167499 2.0484
0.212773 -0.422473 1.55555
0.212366 -0.425757 1.55505
1.60123 0.154285 1.28046
1.64669 0.236094 0.995891
1.79418 0.302169 1.03729
1.68721 0.237105 1.07108
1.6198 0.260948 1.13558
1.44933 -0.21669 0.843533
1.76061 0.095185 1.48102
0.127281 0.384319 1.67847
0.0544106 -0.370317 1.03274
0.0143031 -0.514348 1.03555
0.0282746 -0.226907 1.1531
1.70881 -0.619392 3.33984
2.38695 1.05718 -0.34157
0.483183 -0.777145 3.40066
1.57121 -0.237859 2.24465
1.23028 -0.447813 2.61875
1.17964 -1.0343 2.74756
1.91328 -0.423293 3.44016
2.51527 -0.29464 3.09508
2.00924 -0.581495 3.74311
1.74362 -0.371063 3.32899
1.28794 -1.19721 2.81184
1.55762 -1.15815 2.76594
1.55791 -1.15852 2.76567
1.58958 -0.984055 3.20109
0.493806 -0.350118 1.2772
0.412576 -0.490362 1.7314
0.227656 -0.442672 1.63466
0.629099 -0.385958 1.37802
1.19518 -0.234059 2.92006
0.543974 -0.376154 1.35885
1.70461 -0.350373 0.987262
2.03158 -0.291893 1.32112
0.576666 -0.619708 3.70084
1.04605 -0.664329 3.92012
1.56897 -0.995732 3.20443
1.20964 -0.345864 3.64686
0.949002 -1.02197 2.45657
1.95098 -0.515746 3.66089
0.18728 -0.293362 2.74811
1.23907 -0.195096 3.02748
0.135478 -0.416585 2.56961
0.885105 0.0275794 3.13578
-0.123467 -0.705523 2.42238
0.63926 -0.359334 3.06105
0.0825249 -0.319009 1.07029
0.130607 -0.137951 1.06649
-0.0338207 0.206327 1.68289
1.45631 -0.245063 0.912938
2.36721 0.303555 2.01117
2.33525 -0.437416 1.26858
1.48337 -0.20218 0.938503
1.48504 -0.234504 0.887863
2.01549 0.368392 0.534768
2.4429 -0.872452 3.99552
0.659911 -0.312903 1.31049
2.68323 -0.571086 1.70325
4.32252 -0.311558 0.440999
4.68207 0.333105 0.397827
5.48307 1.23115 0.1672
3.24937 0.272957 1.50478
2.41831 -0.0467258 2.2483
2.45818 0.0379288 2.04751
2.8113 -0.347648 1.56512
2.47834 -0.537255 1.98071
-0.191293 -0.170434 0.739835
0.165385 0.0220943 0.33551
3.43391 -0.643425 1.34008
1.60509 -0.162958 1.0341
2.68678 -0.227188 1.75815
2.64218 -0.465762 1.81363
4.08856 -0.487837 0.635859
0.202769 -0.512528 1.79944
0.502663 -0.372209 1.31972
-0.048736 -0.767206 1.94118
1.00743 -1.27323 2.83611
0.264395 -0.335625 1.16433
-0.137291 -0.468042 1.45602
0.212942 -0.22089 1.14623
1.55045 -1.46383 2.81387
1.2563 -1.01769 3.89749
1.00517 -1.44598 3.10492
0.935863 -1.0175 3.85667
1.27477 -1.13335 3.02448
0.0536013 -0.374532 1.04343
-0.0184515 0.0762785 1.04008
1.03196 0.294147 1.73924
0.0591993 -0.00117533 0.323946
0.141304 -0.27866 1.02449
0.85087 0.363696 1.7143
0.605677 0.246525 1.57672
0.24249 -0.0462352 1.39856
2.86097 -0.274384 2.51909
2.554 -0.975156 2.14989
2.61256 -0.174928 1.75906
2.51271 -0.262149 2.24953
4.81158 0.358995 -0.122006
4.00793 0.830635 0.360492
1.30042 0.0180496 2.46117
1.50075 -0.148181 0.992441
0.134232 -0.209218 1.04964
0.561434 0.0320046 1.51322
0.058041 -0.238255 0.901142
-0.746558 -0.325718 1.1528
0.150625 -0.299189 1.10573
1.08675 -1.84224 3.36451
0.0843993 0.00868725 0.206216
-0.0370943 0.0151035 0.249951
0.587037 -0.899637 3.36773
0.0875261 -0.806368 1.80548
1.16732 -0.981976 3.61245
0.165953 -1.03748 1.96532
1.19994 -0.232886 2.28944
0.972366 -0.137209 2.97877
0.26717 -0.285899 1.20499
-0.053874 -0.210337 0.778538
-0.0822384 0.0171794 0.265934
-0.0304736 -0.0154391 0.613262
2.56981 -0.135455 1.98955
1.84934 -0.268831 1.45307
1.75447 0.117472 1.46293
2.47945 0.289339 2.32238
0.143746 -0.294707 1.01151
-0.0215938 -0.278819 0.974548
0.0700679 0.0132322 0.192346
0.196608 -1.12708 1.92629
0.155881 -0.862221 1.93048
0.628247 -0.417935 1.45849
2.8293 -0.218053 2.62457
2.4711 -0.29549 3.12268
3.05353 -0.789126 2.86704
0.215328 -0.349043 1.17915
1.68132 0.0617734 1.10125
1.19672 0.146145 2.0179
0.0626833 -0.0786664 0.916783
2.66868 -0.508737 1.7165
2.79496 -0.242687 0.383691
2.0345 -0.188461 1.02699
2.52299 0.379253 1.82088
1.85493 -0.307454 1.44307
-0.0751509 0.0207452 0.275457
-0.557667 -0.440351 1.05765
-0.0292869 -0.586399 1.20278
1.83546 0.0594485 1.57104
2.25244 0.384046 2.13229
2.63158 -0.441671 1.80715
-0.447667 -0.139382 0.922675
0.96114 -0.240742 2.01621
-0.538654 -0.16013 1.07861
3.05582 0.465404 1.51271
3.21951 -0.644162 1.29077
3.19603 -0.720216 1.12835
2.61831 -0.181158 1.75226
-0.0646802 0.0109881 0.143114
-0.131058 -0.0158554 0.193808
-0.0679172 0.0146643 0.290294
-0.928261 -0.10415 1.28267
-0.141087 -0.108242 0.751522
0.0639553 0.000152718 0.217217
-0.0413145 0.0199166 0.263344
2.79356 -1.30732 2.85012
0.540206 0.119227 1.47869
1.37959 0.0383624 2.52893
-0.0857888 -0.274351 0.702026
1.74134 -0.384724 1.24572
1.58311 -0.191501 1.10194
2.41585 -0.456471 1.80652
2.89743 -0.22803 0.855757
0.583291 -0.91042 2.22458
-0.399774 -0.553518 1.25486
0.643729 -0.895997 3.42859
1.6819 -0.985854 3.13972
0.201133 -0.73701 2.5748
0.62526 -0.548625 3.0791
0.528445 -0.500944 2.87835
0.423017 -0.985716 2.2454
0.034328 -0.0898894 0.939029
2.71415 0.088155 2.50315
2.7743 0.332667 1.87311
1.04203 -1.02761 2.56637
0.213483 0.00430748 0.339446
0.420931 -0.362099 1.35339
0.128591 -0.937037 1.91418
1.79151 -1.58974 2.92014
2.14354 -1.43602 3.13571
0.167406 0.352614 1.75496
0.453556 0.160058 1.38006
0.0384943 -0.307815 1.35374
0.162099 -0.100649 1.06868
0.070345 -0.104213 0.997126
0.510767 0.288548 1.49025
0.666497 0.30836 1.55087
-0.056889 -0.0960102 0.827033
-0.224561 -0.193498 0.846325
1.50765 -1.13262 2.69748
1.74521 -0.697944 3.46279
1.95836 -0.380347 3.34725
-0.0543213 0.0215041 0.169095
-0.0196867 -0.00787742 0.654008
-0.0296564 0.0149999 0.346173
-0.0718952 0.00949707 0.293736
0.0843477 0.00882862 0.206408
-0.0313782 0.0405177 0.270173
0.365938 -0.228216 1.15388
1.05363 -1.51994 2.94817
0.607338 -0.464604 1.86968
1.61237 -0.266069 2.33005
0.445788 -0.896531 2.16615
1.07801 0.28646 1.59082
0.680819 0.258989 1.63251
0.446485 0.164423 1.38947
0.812069 0.352228 1.64998
4.58483 1.42678 0.883016
2.48083 -0.2997 2.08327
2.53223 0.342383 1.59934
2.7473 0.317861 1.7461
0.937898 -0.390833 3.45291
-0.966617 -0.216209 0.830986
3.80746 -0.524165 0.975186
2.72936 -0.715793 1.69269
0.62587 0.0131904 1.55928
0.0837972 -0.111383 0.981506
2.9149 -0.713342 1.28959
1.64472 0.232977 0.999627
1.68291 -0.228156 1.19611
1.5937 -0.330539 0.998775
1.63384 -0.318072 0.971331
0.50403 -0.37187 1.31538
0.0138359 -0.436294 1.61102
1.6021 -0.367732 2.73702
0.104591 -0.279747 1.56796
1.86453 -0.866447 3.6482
2.20381 -0.863066 3.43549
1.1575 -0.722186 4.44577
0.558578 0.0294705 1.50071
0.571388 -0.911418 2.25076
1.22393 -0.158883 2.86979
0.427986 -0.889436 2.15661
1.76416 -0.354653 3.35569
1.72236 -0.365541 1.21873
2.87675 -0.255669 1.6519
2.69808 0.387571 1.77853
2.81903 -0.79148 1.57937
3.30666 -0.347842 1.25715
2.44821 -0.825969 1.74202
0.0761451 -0.0977138 0.988079
0.497311 0.233774 1.44854
0.0928977 -0.256479 0.965579
0.539155 -0.078911 1.35613
2.19169 -0.262148 2.72058
0.578903 0.150362 1.52551
0.0460818 -0.305847 1.33397
0.0429463 -0.310149 1.3243
0.464919 -0.264921 1.2749
2.15687 -1.21758 3.22895
2.48163 -0.818604 1.81417
3.05116 -0.895858 2.8221
3.71706 0.266251 1.13052
2.98562 0.542753 1.15167
2.54736 -0.275245 2.23952
0.160124 -0.369538 1.21438
0.386393 -0.0772123 1.18889
0.11087 -0.0265344 0.392296
-0.310565 -0.805413 1.38835
0.728019 -0.0450284 1.61109
0.19502 -0.441684 1.60293
0.450617 -0.0464379 1.2537
0.197873 -0.407407 1.05486
0.113902 -0.24043 1.07867
0.608223 -1.04202 3.3338
1.81649 -1.21607 2.76555
1.79345 -0.446449 3.37913
1.69155 -1.18154 3.39988
2.43142 -0.832764 4.06835
1.35742 -1.04778 3.41021
2.40091 -0.751698 4.06911
2.65574 -0.797861 4.61254
0.837969 -0.872527 2.27333
1.61143 -0.265351 2.30038
0.47499 -1.04632 2.23737
-0.432369 -0.506672 1.06697
0.0321335 -0.560821 2.68755
0.501619 -0.411118 2.87171
0.288929 -0.924685 2.12875
0.212287 -0.849475 2.0124
1.51581 -0.525894 2.99717
0.258951 -0.937324 2.15629
0.213282 -0.438057 2.57087
0.492612 -0.641058 2.28116
0.0274198 -0.0587009 2.7125
0.544094 -0.288659 3.00111
0.419021 -0.839829 2.29502
0.589635 -0.0782234 3.01467
0.372468 -0.783494 2.07881
0.331869 -0.15191 2.76958
1.13575 -0.727003 3.48679
-0.0577664 -0.237144 2.55491
0.164273 -0.138221 1.06172
0.454507 -0.306004 1.18617
-0.13886 -0.061419 0.740531
0.164857 0.0238886 0.346518
-0.418969 -0.153233 0.912956
-0.683345 -0.351467 1.43014
-0.403912 -0.151599 0.887859
0.399692 0.0365691 1.28661
1.52106 0.216369 1.96836
0.451783 -0.0413525 1.25273
0.072881 -0.403749 1.29624
0.150394 0.086455 1.50452
0.752947 -0.541501 1.83573
-0.0156722 -0.362461 1.28878
0.333281 -0.256131 1.13118
0.141806 -0.276495 1.01993
2.69817 -0.649742 1.70057
3.26078 -0.838385 1.17128
1.75615 -0.338546 1.16637
1.80867 -0.332619 1.36511
-0.345148 -0.699601 1.30352
0.470964 -0.404714 1.41835
-0.0842647 -0.124661 0.695813
1.56508 -1.00321 3.23004
0.853809 -0.142538 1.82627
1.28907 -0.345591 2.36568
1.46131 -0.0458032 2.59832
1.25436 -0.119235 1.96406
0.863323 -0.18448 1.82704
1.22104 -0.449239 2.56404
0.0485606 -0.138046 0.950487
0.271483 -0.237142 1.23545
0.362095 0.0653017 1.29031
2.70102 -0.803016 4.66548
1.03804 -0.367776 3.64335
0.963021 -0.939647 2.44278
1.35425 -0.654478 3.54591
1.04649 -1.36016 3.00126
0.832587 -0.445043 3.35
0.944256 -1.02854 2.46685
1.1922 0.578229 1.5415
0.928 -0.00524926 2.00053
0.745734 0.333341 1.49012
0.735263 0.23775 1.68095
0.993735 0.167972 1.31226
1.95489 -0.321959 1.42241
2.05642 -0.290923 1.32307
2.70284 0.307289 1.76064
2.50521 0.322797 1.61518
3.2835 -0.617525 2.62198
2.3545 -0.51076 3.50967
2.63662 -0.599793 3.11544
2.08459 -1.89575 3.61848
2.45884 -1.26815 2.93076
2.7856 -1.10349 2.90193
1.98419 -0.90013 3.55928
1.98352 -1.09393 4.70894
1.63716 -0.923688 3.24239
1.94504 -0.687562 3.83056
0.912624 -0.93921 3.88648
0.121864 -0.0299084 0.395248
-0.00556849 -0.859871 1.75039
1.52956 0.652191 1.35649
0.241088 -0.433224 1.08719
0.926003 -0.00536936 1.99877
0.455052 -0.306034 1.18168
1.33921 -0.193494 2.1396
0.457687 -0.258335 1.27352
1.30568 0.0244481 2.49914
0.44395 -0.888226 2.14478
0.197639 -0.407211 1.05372
0.546206 -0.462592 1.84074
0.558659 -0.477485 1.87797
1.44497 -0.145161 2.04988
1.28765 0.226097 1.96456
2.52784 -0.218035 3.04243
0.19523 -0.195764 1.12859
0.1944 -0.194787 1.12832
3.22094 -0.44455 3.69842
0.718193 -1.30506 2.55885
1.46824 -0.2402 0.898785
1.63513 -0.305728 1.01355
1.62528 0.265928 0.95222
1.59872 -0.162773 1.03206
1.68361 -0.349265 1.03392
1.70191 -0.411115 0.996058
0.0591104 0.0353153 0.302823
0.0935901 -0.259268 0.965359
-0.0979597 -0.126202 0.731353
0.0852767 -0.126134 0.985857
-0.328534 -0.826758 1.41806
0.671232 -1.27108 2.68865
1.0361 -1.27042 2.8495
1.63652 -0.581764 2.75358
2.16792 -0.896883 3.41696
0.53448 -0.340669 1.24649
0.846751 -0.142427 1.84096
1.13009 -1.40296 3.15483
0.0482257 -0.152821 0.951208
0.0743103 -0.374964 1.07106
0.235613 -0.243666 1.17069
0.141901 0.0897536 1.51471
0.259313 -0.155731 1.22272
0.403197 0.0724327 1.24275
0.263732 -0.347345 1.15832
0.171409 -0.148211 1.03944
0.675327 0.177871 1.72421
0.573304 -0.0125445 1.44824
1.48943 0.5434 1.07772
0.164325 -0.377878 1.01849
0.520696 0.137009 1.43628
1.0471 0.300732 1.76373
0.623765 0.0151885 1.53181
0.809629 0.110622 2.04558
1.72118 -0.466065 1.18137
2.62437 -0.174592 1.7605
1.68057 -0.200186 1.12464
3.15634 1.00034 -0.194263
2.62967 0.577732 -1.47124
1.5939 0.164853 1.27447
2.36957 0.813777 -0.512064
2.61713 1.19622 -0.956829
2.26367 0.832249 -0.44139
2.55105 -0.277184 2.23831
2.60831 -1.07777 2.95831
-0.56043 0.0115439 0.994718
-0.491475 -0.517185 1.15216
-0.433893 -0.52714 1.13768
-0.733704 -0.0425364 1.14452
-0.297354 -0.0815522 0.778554
4.37984 0.717704 0.752748
2.6544 -1.24184 2.69946
-0.15627 -0.804897 1.58678
0.322658 -0.274821 1.22027
0.474474 -0.395457 1.38561
0.480715 -0.116642 1.32565
0.631058 0.0194039 1.58964
4.61296 -0.448051 0.312638
3.05855 0.484207 1.54871
2.89957 -0.183399 2.77951
2.73849 0.162539 2.01604
2.86654 -0.68951 1.49511
2.89474 0.535165 1.29985
2.65338 -0.998761 2.31919
3.29024 0.575658 0.96784
0.734857 -0.808791 2.13116
0.460027 -0.323502 1.25582
-0.0970176 -0.0143812 0.644695
1.65263 -0.562616 2.88674
0.978588 -0.294464 2.29352
2.45299 -0.888515 3.18028
-0.0425346 0.0300322 0.245778
0.215464 0.00638072 0.347111
0.22614 -0.406859 1.09925
0.0634334 -0.00359231 0.314933
0.055902 -0.320815 0.869951
0.147095 -0.299689 1.25214
2.47183 -0.299071 3.12239
1.31033 -0.567654 3.50812
2.56587 -0.273544 3.38372
1.46758 -0.480462 3.09823
1.62104 -0.561787 3.54362
2.53175 -0.928853 3.10797
1.09569 -1.26743 2.97974
2.44149 -0.877597 3.19904
1.84308 -0.825696 3.87889
2.2321 -0.985669 4.45272
-0.170119 -0.728422 1.48329
2.6402 -0.457388 1.72775
3.25744 -0.58463 1.16825
0.373239 -0.0747707 1.24721
0.12714 -0.137632 1.06955
1.75885 -0.409764 1.19068
1.72107 -0.253782 1.2613
1.811 -0.453651 1.11811
2.11427 -0.200163 1.0761
1.81307 -0.45507 1.11652
1.92143 -0.214006 1.13786
1.95374 -0.349567 1.55491
2.56245 -0.296947 0.594826
2.7078 0.0841346 2.50153
3.24149 0.265239 1.50669
3.16791 0.607081 1.37109
3.66509 0.54531 1.23838
4.55214 -0.014295 2.87241
3.01317 -0.143751 2.95535
2.21306 -0.950168 3.35147
2.21053 -1.41006 3.12161
3.04223 -1.19843 2.53902
2.9503 -0.266906 2.3973
2.88224 -0.242553 2.81408
1.96205 0.483389 0.266466
1.54791 0.223059 1.24562
2.73261 -0.295393 1.91217
1.34249 -0.703048 3.47991
0.89014 -0.753123 3.60911
0.805723 -0.749421 3.67832
0.16578 -0.365224 1.19355
1.62539 0.115685 1.30605
1.60303 0.375098 1.19141
0.265841 -0.243968 1.21353
1.3099 0.0251606 2.51009
1.30534 0.0194989 2.49318
0.631763 -0.0150438 1.53851
0.0365074 -0.549651 1.02946
1.35944 -1.82783 3.17943
-0.319232 -0.813112 1.39926
1.81502 -1.5431 3.0154
-0.55749 -0.602464 1.08763
0.135024 0.0526088 0.345678
-0.0242465 -0.307116 0.776912
-0.538398 0.0244173 0.874932
-0.715589 -0.211079 1.10709
1.36556 -0.214756 2.49763
0.349124 -0.510004 2.81485
0.537238 -0.324782 2.89031
2.69672 -0.220644 1.75098
4.18355 -0.0351643 -0.397533
4.43077 0.00690205 -0.568206
2.62186 0.234805 1.75735
2.8344 0.582939 1.72293
2.42604 0.219301 2.11991
2.42704 0.187036 2.00584
2.41744 0.169049 2.05117
2.4226 0.171633 2.05648
0.581318 -0.40185 1.37604
0.500597 -0.363702 1.42282
0.558662 -0.456445 1.56727
0.613984 -0.444628 1.57343
1.70905 -0.356587 1.07351
2.35931 -0.504336 3.52878
-0.100677 -0.774765 1.96749
0.23234 -0.312817 1.30931
0.40761 -0.30528 1.17313
-0.0156093 -0.615848 1.96551
0.232263 -0.416583 1.52174
1.19546 0.199376 2.048
0.116987 -0.491525 1.93523
0.561769 -0.368962 1.37631
0.458166 -1.00748 2.27656
0.376771 -0.472661 1.67403
0.572077 -0.412707 1.43017
0.33482 -0.446439 1.63575
0.633078 -0.348177 1.48037
0.38329 -0.472512 1.65778
0.0795137 -0.578515 1.86189
0.22136 -0.381638 1.46258
-0.00714157 -0.619849 2.00997
0.606174 -0.913557 3.37484
0.0533323 -0.0748691 2.68065
0.18771 -0.627378 2.65118
0.78947 -0.569997 3.23686
1.1301 -0.729483 3.48106
1.23641 -0.253194 2.97093
0.582747 -0.80076 2.03968
0.296761 -0.924498 2.11645
0.633615 -0.745009 1.99326
0.314564 -0.898997 2.11456
2.87423 0.0409185 2.77636
2.64421 -0.928735 2.15292
4.14473 0.712347 0.893643
3.05356 0.467769 1.50797
0.391318 -0.164824 2.85097
1.1651 -0.376609 2.22189
0.031943 -0.607424 1.90317
0.245437 -0.404551 1.53426
0.0668739 -0.466012 1.65
-0.341046 -0.775149 2.02678
0.481338 -0.645296 2.29428
0.509715 -0.461888 1.58179
1.0985 -0.0837472 2.24053
1.73779 -1.76379 3.09381
1.19755 -1.64618 3.00962
0.416609 -0.994122 2.25504
1.6362 -0.574373 2.79557
1.28073 -0.446338 2.32173
1.20237 -1.11981 3.98538
2.35596 -1.40204 3.3313
1.40209 -0.220242 2.5356
1.3615 -0.214843 2.48927
2.35 -1.39435 3.31316
1.54113 -0.462172 2.68199
1.26566 -0.893721 3.29273
1.25608 -0.885669 3.25498
0.037414 -0.437605 1.58802
2.06171 -0.358357 1.23295
2.11492 -0.283513 1.31889
1.98713 -0.18495 1.63968
1.95863 -0.320307 1.42144
1.85524 -0.308162 1.44618
0.36408 -0.497145 2.78234
0.890714 -0.759639 3.61878
0.900166 -0.547458 3.29216
-0.229886 -0.396022 2.42175
0.48402 -0.674748 1.81193
-0.165282 -0.476088 2.54102
2.50129 -0.326638 3.48262
1.576 -1.02708 3.3421
2.17842 -0.275463 1.3088
2.40186 0.145395 2.02008
2.68077 -0.51065 1.71731
2.70397 0.390117 1.77836
2.79205 0.280475 1.80632
2.33354 -0.226048 1.17145
2.04923 -0.142793 1.61511
2.77929 0.114314 1.89972
2.49099 -0.821716 1.81554
2.8418 -0.123066 2.71197
3.40947 -0.184454 1.26327
2.48344 -0.155475 1.97238
3.72315 0.324772 1.16188
1.81257 -0.661058 3.47523
2.17702 -1.01975 3.36748
0.250479 -0.333264 1.12927
0.626567 -0.11465 1.46933
0.225861 -0.223336 1.17222
0.233606 -0.254589 1.17033
0.254218 -0.418315 1.12085
0.862508 -0.216121 1.85435
1.43662 -0.144895 2.04694
1.88223 0.350313 2.12046
0.631263 0.0548044 1.50821
0.673367 0.0658997 1.50364
0.186393 -0.206368 1.12686
1.62014 -0.0695769 1.85218
2.08239 0.491643 2.22315
0.197398 -0.395841 1.05875
0.573643 -0.41357 1.38706
0.625132 -0.127571 1.45338
0.202799 -0.430922 1.58737
0.759215 0.0233604 1.60443
0.644844 -0.00374095 1.48709
0.245219 -0.160344 1.22084
0.238018 -0.413458 1.09769
0.23137 -0.44804 1.06896
1.44603 0.318496 0.917991
1.54479 0.184491 1.20998
1.53779 0.201066 1.21232
2.34621 0.730578 -0.596511
1.55593 -0.104854 2.70131
1.56511 -0.168888 1.08987
2.34042 0.612859 -0.901145
0.706556 -0.157898 1.57703
0.637184 -0.0605598 1.57027
0.61333 0.0536112 1.53941
0.656463 -0.295182 1.49738
0.464235 -0.395863 1.44932
2.69505 -0.577778 1.66566
2.64146 -0.384675 1.7379
0.443777 -0.374637 1.41377
1.45258 -1.39072 2.67685
0.368046 -0.292369 1.14718
0.239752 -0.409756 1.09231
2.44852 0.0322814 2.13874
2.86658 -0.216113 1.62925
2.47756 -0.302762 2.1136
2.38085 0.264438 1.49622
2.54241 -0.256901 2.26135
2.33012 0.343469 1.95043
1.99844 -1.07458 3.49211
2.35626 -1.37265 3.0931
2.45077 -0.936317 3.16761
2.53794 -1.18222 3.09377
2.6809 -0.241664 3.33802
1.25971 -0.899096 3.28459
0.590211 -0.0392972 3.11836
-0.00999166 -0.547017 2.74025
0.437166 -0.241708 2.8691
-0.0871823 -0.419853 2.7738
0.414136 -0.374069 1.38103
0.693626 -0.0971842 1.58951
0.728432 -0.0456783 1.6029
0.41214 -0.369975 1.39934
0.456523 -0.335048 1.25204
0.672337 0.0637584 1.49909
0.148341 0.0943302 1.53766
1.43588 0.21133 1.85055
0.696444 -0.0976225 1.5932
1.67771 -0.315477 1.0619
1.75502 -0.342018 1.16825
1.86001 -0.352424 1.43504
0.910564 -0.0103581 1.95602
0.627808 -0.130437 1.4724
1.62542 -0.06839 1.8593
1.05962 0.302642 1.8268
0.0825177 0.151521 1.22217
0.656523 -0.732501 2.11057
3.06336 0.488988 1.55126
3.15853 0.401231 1.53395
2.56841 -0.491308 3.07918
2.85597 -0.751651 1.4748
3.24018 0.266077 1.50392
2.74071 -0.845641 2.40331
2.85809 -1.04322 2.69245
2.91629 -1.28637 3.05445
2.70944 -1.04845 2.11906
2.15038 -0.282039 1.31565
0.577542 0.323042 1.63881
0.31629 -0.273601 1.23418
1.36566 -0.357265 3.66547
2.40232 -1.13391 3.25957
1.39505 -1.19132 2.78693
0.793804 -0.237096 3.38731
1.30908 -0.358927 2.69705
0.923415 -0.0329013 3.02223
1.21367 -0.163435 2.86173
2.63763 -0.708502 3.10758
1.98381 -1.12672 3.54457
2.03813 -0.995431 3.48972
0.153125 -0.568463 2.59917
0.459803 -0.649167 2.39931
0.583906 -0.720763 1.93537
1.36228 -0.473711 2.44337
2.18233 -0.302631 2.96161
1.63559 -1.65578 2.97639
0.73696 0.241662 1.6847
